ply
format ascii 1.0
element vertex 1095
property float x
property float y
property float z
property uchar red
property uchar green
property uchar blue
end_header
-4.0683205 8.6495393 -0.1668450   0   0   0
-4.2156903 8.9669212 2.6549658   0   0   0
-4.1777279 8.9184941 0.1719062   0   0   0
-3.8655973 8.2596708 0.4779319   0   0   0
-1.3909040 2.9733138 -0.6380653   0   0   0
-3.8414812 8.2156102 0.7934659   0   0   0
-1.7545695 3.7524222 -0.6560862   0   0   0
-3.7873198 8.1034634 1.0982865   0   0   0
-4.1988961 8.9922662 1.5718535   0   0   0
-3.8955728 8.3464751 -0.8058420   0   0   0
-4.1948180 8.9876241 1.9279341   0   0   0
-4.0083387 8.5919945 -0.4968776   0   0   0
-4.1952817 8.9968107 2.2918013   0   0   0
-4.0718949 8.7361872 -0.1682412   0   0   0
-4.1949700 9.0043469 2.6616951   0   0   0
-3.9396550 8.4911405 0.1633894   0   0   0
-1.3772140 2.9710261 -0.6365388   0   0   0
-1.7408044 3.7588279 -0.6560862   0   0   0
-3.8184691 8.2487953 1.1160794   0   0   0
-2.4274273 5.2462180 -0.7097671   0   0   0
-4.1666522 9.0050756 1.5715406   0   0   0
-3.8655781 8.3582140 -0.8056677   0   0   0
-4.1676152 9.0154129 1.9306054   0   0   0
-4.0363011 8.7353559 -0.5043093   0   0   0
-4.1647299 9.0174342 2.2931510   0   0   0
-4.1629517 9.0135842 -0.1733024   0   0   0
-4.1627037 9.0171812 2.6611774   0   0   0
-4.0351455 8.7730356 0.1685553   0   0   0
-3.6885846 8.0269374 0.4629639   0   0   0
-1.3733904 2.9900878 -0.6395918   0   0   0
-3.8787993 8.4486462 0.8133374   0   0   0
-1.7283301 3.7645799 -0.6560862   0   0   0
-3.6809793 8.0214545 1.0836622   0   0   0
-4.1393095 9.0285433 1.5731050   0   0   0
-3.8729001 8.4513520 -0.8133374   0   0   0
-4.1458750 9.0470314 1.9344216   0   0   0
-4.0622061 8.8685378 -0.5112176   0   0   0
-4.1356153 9.0329672 2.2936010   0   0   0
-4.1381200 9.0426074 -0.1735816   0   0   0
-4.1328096 9.0351704 2.6622127   0   0   0
-4.0120820 8.8077839 0.1689393   0   0   0
-3.6547496 8.0270401 0.4622312   0   0   0
-1.3645711 2.9984375 -0.6403550   0   0   0
-4.1206977 9.0587999 0.8706859   0   0   0
-1.7145207 3.7708893 -0.6560862   0   0   0
-2.3907429 5.2630367 -0.7097671   0   0   0
-4.1077688 9.0429372 1.5731050   0   0   0
-3.8516128 8.4829610 -0.8150805   0   0   0
-4.1102541 9.0568028 1.9332767   0   0   0
-3.9430409 8.6923855 -0.5002271   0   0   0
-4.1113320 9.0675874 2.2985499   0   0   0
-4.1012458 9.0495416 2.6622127   0   0   0
-3.8742290 8.5804662 0.1643319   0   0   0
-3.5683978 7.9104863 0.4547995   0   0   0
-1.3540963 3.0031824 -0.6403550   0   0   0
-4.0440269 8.9732244 0.8610987   0   0   0
-1.6890203 3.7477392 -0.6510802   0   0   0
-3.6354888 8.0704860 1.0868308   0   0   0
-2.3732769 5.2709357 -0.7097671   0   0   0
-4.0810422 9.0680290 1.5749822   0   0   0
-3.8203435 8.4927199 -0.8147319   0   0   0
-4.0793926 9.0685926 1.9328951   0   0   0
-3.8707851 8.6088686 -0.4946795   0   0   0
-4.0876308 9.0953911 2.3021491   0   0   0
-4.0720059 9.0690895 2.6637656   0   0   0
-4.0639024 9.0849675 0.1737212   0   0   0
-3.5331787 7.9022197 0.4536481   0   0   0
-1.3505382 3.0219955 -0.6434079   0   0   0
-4.0573162 9.0830003 0.8703372   0   0   0
-1.6888135 3.7824722 -0.6560862   0   0   0
-3.7601949 8.4257399 1.1328974   0   0   0
-2.3548634 5.2791879 -0.7097671   0   0   0
-4.0589962 9.0995527 1.5781109   0   0   0
-3.7954049 8.5126208 -0.8154291   0   0   0
-4.0541057 9.0971231 1.9359481   0   0   0
-3.8642786 8.6752366 -0.4977149   0   0   0
-4.0590276 9.1167253 2.3039487   0   0   0
-4.0594268 9.1176219 -0.1742099   0   0   0
-4.0505493 9.1019576 2.6694596   0   0   0
-4.0386160 9.1093625 0.1739307   0   0   0
-3.5872675 8.0989451 0.4642199   0   0   0
-1.3336231 3.0123298 -0.6403550   0   0   0
-3.9497988 8.9258422 0.8539520   0   0   0
-1.6954458 3.8314057 -0.6635950   0   0   0
-3.5740472 8.0805213 1.0848809   0   0   0
-2.3373441 5.2869679 -0.7097671   0   0   0
-4.0288050 9.1172795 1.5787366   0   0   0
-3.7753269 8.5476878 -0.8175209   0   0   0
-4.0294687 9.1230881 1.9386194   0   0   0
-3.9847144 9.0260224 -0.5170792   0   0   0
-4.0295598 9.1319182 2.3043986   0   0   0
-3.8621473 8.7566601 -0.1670544   0   0   0
-4.0210907 9.1213443 2.6710125   0   0   0
-4.0092203 9.1332588 0.1741052   0   0   0
-3.5429255 8.0748386 0.4621265   0   0   0
-1.3199459 3.0097749 -0.6388285   0   0   0
-4.0058048 9.1384757 0.8729519   0   0   0
-1.6766352 3.8267380 -0.6617178   0   0   0
-3.9929947 9.1222390 1.5771723   0   0   0
-3.7470641 8.5644647 -0.8178695   0   0   0
-3.9999369 9.1467895 1.9405275   0   0   0
-3.9987970 9.1441829 -0.5230455   0   0   0
-4.0000004 9.1512852 2.3057483   0   0   0
-3.7923291 8.6802982 -0.1653441   0   0   0
-3.9907729 9.1388658 2.6720478   0   0   0
-3.8321351 8.8091025 0.1676827   0   0   0
-3.5081649 8.0682269 0.4610798   0   0   0
-1.3193483 3.0357421 -0.6434079   0   0   0
-3.9453131 9.0822673 0.8663281   0   0   0
-1.6655095 3.8359008 -0.6623435   0   0   0
-3.6740238 8.4658339 1.1331412   0   0   0
-3.5295820 8.1368937 1.4047815   0   0   0
-3.7226055 8.5859832 -0.8187410   0   0   0
-3.9695831 9.1600035 1.9405275   0   0   0
-3.9676577 9.1555606 -0.5229409   0   0   0
-3.9781519 9.1841695 2.3106972   0   0   0
-3.9677085 9.1644447 -0.1743146   0   0   0
-3.9627471 9.1573683 2.6736007   0   0   0
-3.9366603 9.1408229 0.1737212   0   0   0
-3.4635657 8.0461750 0.4590910   0   0   0
-1.3082129 3.0405574 -0.6434079   0   0   0
-3.9513546 9.1881824 0.8750437   0   0   0
-1.6498789 3.8383498 -0.6617178   0   0   0
-3.9485755 9.1905583 1.2281992   0   0   0
-2.2881207 5.3257453 -0.7117170   0   0   0
-3.4973968 8.1443304 1.4038429   0   0   0
-3.7123291 8.6490029 -0.8234475   0   0   0
-3.9367573 9.1762954 1.9409091   0   0   0
-3.9356222 9.1780702 -0.5233596   0   0   0
-3.9490715 9.2094346 2.3133966   0   0   0
-3.9411824 9.1954675 -0.1746288   0   0   0
-3.9314393 9.1771583 2.6751537   0   0   0
-3.6912706 8.6498792 0.1641573   0   0   0
-3.4329466 8.0484307 0.4585676   0   0   0
-1.2996627 3.0484908 -0.6441712   0   0   0
-3.9263311 9.2140654 0.8762638   0   0   0
-1.6371414 3.8437999 -0.6617178   0   0   0
-3.9165217 9.1999488 1.2277118   0   0   0
-2.3031045 5.4100156 -0.7219540   0   0   0
-3.4819714 8.1831484 1.4085359   0   0   0
-3.7467888 8.8097761 -0.8375667   0   0   0
-3.9109143 9.2001404 1.9431988   0   0   0
-3.9098512 9.2021000 -0.5239876   0   0   0
-3.9207964 9.2278603 2.3147463   0   0   0
-3.9114491 9.2103269 -0.1746637   0   0   0
-3.9077786 9.2061495 2.6798124   0   0   0
-3.6727312 8.6903407 0.1646809   0   0   0
-3.3947281 8.0364469 0.4572069   0   0   0
-1.2951226 3.0674782 -0.6472241   0   0   0
-3.8128063 9.0349736 0.8579611   0   0   0
-1.6267849 3.8567715 -0.6629693   0   0   0
-3.8920957 9.2318557 1.2301492   0   0   0
-2.2950023 5.4436304 -0.7253663   0   0   0
-3.7508155 8.9054289 -0.8454107   0   0   0
-3.8871551 9.2336400 1.9473966   0   0   0
-3.8800893 9.2168558 -0.5240923   0   0   0
-3.8885612 9.2414902 2.3147463   0   0   0
-3.8792752 9.2239243 -0.1746637   0   0   0
-3.8846028 9.2411049 2.6860241   0   0   0
-3.6554778 8.7301400 0.1652045   0   0   0
-3.4544201 8.2540103 0.4689302   0   0   0
-1.2849434 3.0717561 -0.6472241   0   0   0
-3.7912783 9.0677877 0.8598786   0   0   0
-1.6261732 3.8913070 -0.6679752   0   0   0
-3.8614604 9.2447116 1.2301492   0   0   0
-2.2493944 5.3852689 -0.7165917   0   0   0
-3.8041287 9.1164004 -0.8642363   0   0   0
-3.8655827 9.2682231 1.9519760   0   0   0
-3.8548856 9.2425754 -0.5248250   0   0   0
-3.8631428 9.2669252 2.3178957   0   0   0
-3.8525119 9.2459671 -0.1748382   0   0   0
-3.8583931 9.2646362 2.6891299   0   0   0
-3.6410639 8.7859683 0.1660073   0   0   0
-1.2736762 3.0764450 -0.6472241   0   0   0
-3.7869666 9.1515803 0.8665024   0   0   0
-1.6013301 3.8716854 -0.6635950   0   0   0
-3.7623301 9.1010341 1.2091876   0   0   0
-2.2417754 5.4228294 -0.7204916   0   0   0
-3.8275771 9.2634449 1.5874970   0   0   0
-3.7798162 9.1523803 -0.8663281   0   0   0
-3.8353325 9.2914026 1.9538841   0   0   0
-3.8286046 9.2751038 -0.5258717   0   0   0
-3.8321248 9.2882279 2.3196953   0   0   0
-3.8208849 9.2655712 -0.1749429   0   0   0
-3.8229383 9.2751435 2.6880946   0   0   0
-3.6141869 8.8035438 0.1661120   0   0   0
-3.4520607 8.4128112 0.4765712   0   0   0
-1.2724070 3.1024488 -0.6518035   0   0   0
-3.7044546 9.0368858 0.8544749   0   0   0
-1.5989673 3.9025649 -0.6679752   0   0   0
-3.7825329 9.2365408 1.2255181   0   0   0
-2.2207711 5.4228855 -0.7195166   0   0   0
-3.8050686 9.2961964 1.5909385   0   0   0
-3.7600068 9.1906808 -0.8687684   0   0   0
-3.7985554 9.2895323 1.9508312   0   0   0
-3.8031177 9.3006896 -0.5266044   0   0   0
-3.8079382 9.3171197 2.3237444   0   0   0
-3.7961878 9.2930003 -0.1752222   0   0   0
-3.7950807 9.2949239 2.6901652   0   0   0
-3.7745763 9.2910081 0.1750476   0   0   0
-1.2595508 3.1034533 -0.6510403   0   0   0
-3.7799043 9.3181114 0.8797501   0   0   0
-1.5772307 3.8900929 -0.6648465   0   0   0
-3.7329972 9.2117074 1.2203996   0   0   0
-2.1993892 5.4273091 -0.7190291   0   0   0
-3.7783866 9.3283892 1.5940672   0   0   0
-3.7315296 9.2173277 -0.8699886   0   0   0
-3.7733189 9.3252313 1.9554106   0   0   0
-3.7682543 9.3127148 -0.5264997   0   0   0
-3.7752250 9.3346270 2.3246442   0   0   0
-3.7673477 9.3198293 -0.1754665   0   0   0
-3.7660534 9.3213094 2.6937886   0   0   0
-3.7512105 9.3220253 0.1753967   0   0   0
-1.2507170 3.1112562 -0.6518035   0   0   0
-3.7638398 9.3675696 0.8832363   0   0   0
-1.5731559 3.9172987 -0.6686009   0   0   0
-3.7401416 9.3179894 1.2328303   0   0   0
-2.1858162 5.4456261 -0.7204916   0   0   0
-3.7503738 9.3482008 1.5953187   0   0   0
-3.7091001 9.2499931 -0.8719060   0   0   0
-3.7474871 9.3504492 1.9580819   0   0   0
-3.7410666 9.3344291 -0.5270231   0   0   0
-3.7456988 9.3507128 2.3255440   0   0   0
-3.7431108 9.3489789 -0.1757806   0   0   0
-3.7422996 9.3516825 2.6989650   0   0   0
-3.7247191 9.3455591 0.1756061   0   0   0
-1.2403928 3.1153866 -0.6518035   0   0   0
-3.7305451 9.3744458 0.8827134   0   0   0
-1.6039611 4.0326248 -0.6873730   0   0   0
-3.7231549 9.3653897 1.2374613   0   0   0
-2.1838793 5.4934273 -0.7258538   0   0   0
-3.7200829 9.3624219 1.5956315   0   0   0
-3.6842887 9.2770557 -0.8733005   0   0   0
-3.7208052 9.3737734 1.9603716   0   0   0
-3.7143528 9.3622830 -0.5278605   0   0   0
-3.7175447 9.3703281 2.3273436   0   0   0
-3.7084023 9.3520457 -0.1756061   0   0   0
-3.7148266 9.3730207 2.7015532   0   0   0
-3.6966444 9.3652995 0.1757457   0   0   0
-3.7015025 9.3824021 0.5285932   0   0   0
-1.2286146 3.1158300 -0.6510403   0   0   0
-3.6833660 9.3459854 0.8788785   0   0   0
-1.5905796 4.0379216 -0.6873730   0   0   0
-3.6862599 9.3629078 1.2355114   0   0   0
-2.1787403 5.5338867 -0.7302411   0   0   0
-3.6926322 9.3838975 1.5971959   0   0   0
-3.6644432 9.3170343 -0.8759152   0   0   0
-3.6897002 9.3860605 1.9603716   0   0   0
-3.6935112 9.4005736 -0.5293259   0   0   0
-3.6928648 9.3989283 2.3313927   0   0   0
-3.6810241 9.3735984 -0.1757806   0   0   0
-3.6865475 9.3924812 2.7036237   0   0   0
-3.6666582 9.3899617 0.1759552   0   0   0
-3.6685417 9.3996269 0.5288025   0   0   0
-1.2136189 3.1111671 -0.6491322   0   0   0
-3.6722461 9.4188242 0.8844565   0   0   0
-1.5757692 4.0437242 -0.6873730   0   0   0
-3.6576819 9.3911537 1.2374613   0   0   0
-2.1699700 5.5714310 -0.7341409   0   0   0
-3.6632299 9.4102544 1.5993860   0   0   0
-3.6425515 9.3619681 -0.8788785   0   0   0
-3.6588316 9.4086697 1.9622797   0   0   0
-3.6606746 9.4134091 -0.5293259   0   0   0
-3.6619211 9.4214820 2.3336422   0   0   0
-3.6632981 9.4298987 -0.1765835   0   0   0
-3.6548945 9.4131334 2.7056943   0   0   0
-3.6383845 9.4095297 0.1760948   0   0   0
-3.6445511 9.4303702 0.5298492   0   0   0
-1.2181508 3.1536334 -0.6571462   0   0   0
-3.5046521 9.0778005 0.8513373   0   0   0
-3.6365199 9.4291611 1.2408737   0   0   0
-2.1514826 5.5785962 -0.7341409   0   0   0
-3.6362671 9.4334094 1.6012632   0   0   0
-3.6193651 9.3944468 -0.8807959   0   0   0
-3.6304331 9.4280796 1.9638062   0   0   0
-3.6272854 9.4199051 -0.5290118   0   0   0
-3.6334580 9.4408484 2.3354418   0   0   0
-3.6298535 9.4363956 -0.1764787   0   0   0
-3.6264323 9.4324144 2.7077648   0   0   0
-3.6122241 9.4495809 0.1765835   0   0   0
-3.6068887 9.4405633 0.5296399   0   0   0
-1.2046320 3.1546193 -0.6563829   0   0   0
-3.5216319 9.2270744 0.8640620   0   0   0
-1.5467928 4.0548966 -0.6873730   0   0   0
-3.6045309 9.4541839 1.2423361   0   0   0
-2.1441902 5.6239132 -0.7390157   0   0   0
-3.6035357 9.4565316 1.6028275   0   0   0
-3.5953218 9.4399275 -0.8837592   0   0   0
-3.5990943 9.4547936 1.9664775   0   0   0
-3.5915730 9.4399901 -0.5293259   0   0   0
-3.5971811 9.4547302 2.3354418   0   0   0
-3.5978582 9.4614784 -0.1766882   0   0   0
-3.5943058 9.4571043 2.7108707   0   0   0
-3.5844074 9.4708587 0.1767580   0   0   0
-3.3762923 8.9256744 0.5001224   0   0   0
-1.1844443 3.1328872 -0.6510403   0   0   0
-3.5867938 9.4921743 0.8877684   0   0   0
-3.5780671 9.4790853 1.2440423   0   0   0
-2.1213227 5.6198496 -0.7375533   0   0   0
-3.5686705 9.4591883 1.6012632   0   0   0
-3.5675129 9.4611194 -0.8846308   0   0   0
-3.5739525 9.4832107 1.9699121   0   0   0
-3.5672893 9.4705389 -0.5303726   0   0   0
-3.5713036 9.4811962 2.3390411   0   0   0
-3.5671676 9.4752288 -0.1767231   0   0   0
-3.5676875 9.4816281 2.7144941   0   0   0
-3.5543844 9.4864381 0.1768278   0   0   0
-3.3172569 8.8582643 0.4957262   0   0   0
-1.1768015 3.1441525 -0.6525668   0   0   0
-3.4645471 9.2614242 0.8651079   0   0   0
-3.5480034 9.4946175 1.2445297   0   0   0
-2.1110134 5.6491673 -0.7404781   0   0   0
-3.5324451 9.4580168 1.5990731   0   0   0
-3.5375126 9.4766308 -0.8849794   0   0   0
-3.5431717 9.4968496 1.9702937   0   0   0
-3.5458970 9.5041543 -0.5316286   0   0   0
-3.5480137 9.5148980 2.3444399   0   0   0
-3.5441072 9.5094913 -0.1771419   0   0   0
-3.5402717 9.5042689 2.7176000   0   0   0
-3.5236021 9.5000476 0.1768627   0   0   0
-3.2920290 8.8804523 0.4963542   0   0   0
-1.1977447 3.2327216 -0.6701212   0   0   0
-3.3417956 9.0243651 0.8419245   0   0   0
-1.5063773 4.0700837 -0.6873730   0   0   0
-3.5213195 9.5193635 1.2462359   0   0   0
-2.0991554 5.6747545 -0.7429155   0   0   0
-3.5195569 9.5197045 1.6075206   0   0   0
-3.5143545 9.5107361 -0.8870712   0   0   0
-3.5116595 9.5085470 1.9702937   0   0   0
-3.5185122 9.5271021 -0.5322567   0   0   0
-3.5204905 9.5375804 2.3471393   0   0   0
-3.5160137 9.5305722 -0.1773164   0   0   0
-3.5094033 9.5177691 2.7181176   0   0   0
-3.4942672 9.5279178 0.1771419   0   0   0
-3.4952226 9.5356710 0.5322567   0   0   0
-1.1710308 3.1965341 -0.6617256   0   0   0
-3.3093822 9.0384237 0.8420988   0   0   0
-3.4775413 9.5079698 1.2430673   0   0   0
-2.0715236 5.6637671 -0.7404781   0   0   0
-3.0831416 8.4342017 1.4223022   0   0   0
-3.4828909 9.5329100 -0.8879427   0   0   0
-3.4814992 9.5342631 1.9729650   0   0   0
-3.4787745 9.5268015 -0.5315240   0   0   0
-3.4855098 9.5504196 2.3471393   0   0   0
-3.4913375 9.5715743 -0.1778400   0   0   0
-3.4778038 9.5396428 2.7207058   0   0   0
-3.4667461 9.5507310 0.1773513   0   0   0
-3.4601763 9.5378215 0.5317333   0   0   0
-1.1550705 3.1856344 -0.6586726   0   0   0
-3.2780339 9.0456019 0.8417502   0   0   0
-1.4779263 4.0805010 -0.6873730   0   0   0
-3.4595063 9.5567807 1.2479421   0   0   0
-2.0689469 5.7154028 -0.7463279   0   0   0
-3.0410427 8.4053710 1.4157319   0   0   0
-3.4587121 9.5650175 -0.8898601   0   0   0
-3.4558689 9.5623731 1.9763996   0   0   0
-3.4498788 9.5457985 -0.5319427   0   0   0
-3.4577925 9.5729225 2.3498387   0   0   0
-3.4602569 9.5849803 -0.1778749   0   0   0
-3.4507397 9.5638435 2.7243293   0   0   0
-3.4344192 9.5709018 0.1774910   0   0   0
-3.3739521 9.4075591 0.5237783   0   0   0
-1.1367623 3.1713654 -0.6548565   0   0   0
-3.2354508 9.0312965 0.8393098   0   0   0
-1.4629606 4.0858904 -0.6873730   0   0   0
-3.4318129 9.5899554 1.2506232   0   0   0
-2.0814270 5.8163986 -0.7585148   0   0   0
-3.4273211 9.5826751 1.6119007   0   0   0
-3.4263139 9.5851346 -0.8905574   0   0   0
-3.4287240 9.5971609 1.9809790   0   0   0
-3.4242758 9.5847105 -0.5334081   0   0   0
-3.4253040 9.5928726 2.3516383   0   0   0
-3.4251029 9.5975984 -0.1778749   0   0   0
-3.4260472 9.6055400 2.7326115   0   0   0
-3.4073462 9.5954290 0.1777353   0   0   0
-3.4015221 9.5843323 0.5329894   0   0   0
-1.1275521 3.1788182 -0.6556197   0   0   0
-3.2893660 9.2785885 0.8612730   0   0   0
-3.4019806 9.6068967 1.2513544   0   0   0
-2.0621277 5.8232689 -0.7585148   0   0   0
-3.4007975 9.6088853 1.6144037   0   0   0
-3.3945096 9.5964439 -0.8905574   0   0   0
-3.3968798 9.6084782 1.9809790   0   0   0
-3.3971330 9.6091944 -0.5341408   0   0   0
-3.3999663 9.6225528 2.3561373   0   0   0
-3.3952549 9.6145604 -0.1779796   0   0   0
-3.3871027 9.5968095 2.7269175   0   0   0
-3.3778066 9.6185848 0.1779447   0   0   0
-3.3812746 9.6338385 0.5350828   0   0   0
-1.1190485 3.1901451 -0.6571462   0   0   0
-3.1561046 9.0023451 0.8346034   0   0   0
-3.3310277 9.5119220 1.2374613   0   0   0
-2.0417881 5.8304316 -0.7585148   0   0   0
-3.3737612 9.6393425 1.6175324   0   0   0
-3.3662540 9.6232797 -0.8919519   0   0   0
-3.3691505 9.6369564 1.9844136   0   0   0
-3.3638671 9.6272374 -0.5344548   0   0   0
-3.3753558 9.6601177 2.3624360   0   0   0
-3.3689252 9.6471203 -0.1783636   0   0   0
-3.3586757 9.6231658 2.7310586   0   0   0
-3.3491732 9.6391778 0.1781193   0   0   0
-3.3532402 9.6563187 0.5357108   0   0   0
-1.1174753 3.2198046 -0.6624888   0   0   0
-3.1294991 9.0221734 0.8354750   0   0   0
-3.3436589 9.6504632 1.2540355   0   0   0
-2.0224425 5.8371704 -0.7585148   0   0   0
-3.3463021 9.6635437 1.6197225   0   0   0
-3.3382332 9.6456866 -0.8929977   0   0   0
-3.3403835 9.6573529 1.9863216   0   0   0
-3.3338812 9.6440024 -0.5347688   0   0   0
-3.3477601 9.6841502 2.3655853   0   0   0
-3.3427928 9.6752496 -0.1786777   0   0   0
-3.3355733 9.6598154 2.7383055   0   0   0
-3.3166802 9.6652066 0.1783636   0   0   0
-3.1165736 9.0872375 0.5034719   0   0   0
-1.0987381 3.2054998 -0.6586726   0   0   0
-3.1025818 9.0567416 0.8375667   0   0   0
-3.3149340 9.6876471 1.2572041   0   0   0
-2.0102973 5.8749438 -0.7624146   0   0   0
-2.9154209 8.5249569 1.4269952   0   0   0
-3.3076157 9.6772864 -0.8947409   0   0   0
-3.3108930 9.6924020 1.9909011   0   0   0
-3.3069049 9.6807273 -0.5361295   0   0   0
-3.3092918 9.6932448 2.3646855   0   0   0
-3.3049722 9.6861211 -0.1786428   0   0   0
-3.3053165 9.6926649 2.7439995   0   0   0
-3.2910388 9.6950877 0.1787126   0   0   0
-3.0844971 9.0918483 0.5031579   0   0   0
-1.1007106 3.2463114 -0.6663050   0   0   0
-3.0712526 9.0632063 0.8372181   0   0   0
-3.2859727 9.7079880 1.2584228   0   0   0
-1.9857127 5.8665355 -0.7604647   0   0   0
-2.8833371 8.5233506 1.4251180   0   0   0
-3.0815159 9.1144216 -0.8417502   0   0   0
-3.2843898 9.7200675 1.9943356   0   0   0
-3.2767024 9.6973166 -0.5364435   0   0   0
-3.2833646 9.7226285 2.3691845   0   0   0
-3.2741127 9.7008169 -0.1787126   0   0   0
-3.2756262 9.7108945 2.7460701   0   0   0
-3.2601436 9.7097392 0.1787825   0   0   0
-3.0575074 9.1114944 0.5036812   0   0   0
-1.0899394 3.2499436 -0.6663050   0   0   0
-3.0399147 9.0695630 0.8368694   0   0   0
-1.4010960 4.1825821 -0.6986363   0   0   0
-3.2600638 9.7376553 1.2608602   0   0   0
-1.9712893 5.8881473 -0.7624146   0   0   0
-2.8356261 8.4747931 1.4154190   0   0   0
-3.0335822 9.0716830 -0.8368694   0   0   0
-3.2521389 9.7309055 1.9943356   0   0   0
-3.2472617 9.7219560 -0.5371763   0   0   0
-3.2548095 9.7445533 2.3718839   0   0   0
-3.2457247 9.7230017 -0.1789221   0   0   0
-3.2440170 9.7235361 2.7465877   0   0   0
-3.2254062 9.7129057 0.1786428   0   0   0
-3.0794919 9.2789174 0.5123690   0   0   0
-1.0927538 3.2945355 -0.6747006   0   0   0
-1.3897033 4.1947059 -0.6998878   0   0   0
-3.2302505 9.7559505 1.2618352   0   0   0
-1.9492568 5.8871140 -0.7614397   0   0   0
-2.8385361 8.5779180 1.4310625   0   0   0
-2.9928476 9.0495352 -0.8339062   0   0   0
-3.2217005 9.7472287 1.9954805   0   0   0
-3.2187634 9.7440497 -0.5378043   0   0   0
-3.2261449 9.7663954 2.3745833   0   0   0
-3.2241215 9.7659926 -0.1795154   0   0   0
-3.2184132 9.7544204 2.7522817   0   0   0
-3.0457063 9.2963673 0.5126830   0   0   0
-3.1986304 9.7746666 0.8997959   0   0   0
-3.0873073 9.4456285 1.2201559   0   0   0
-1.9328048 5.9134238 -0.7638770   0   0   0
-2.8129389 8.6112867 1.4348169   0   0   0
-2.9549863 9.0514901 -0.8330346   0   0   0
-3.1909487 9.7800579 1.9996783   0   0   0
-3.1855061 9.7633766 -0.5382230   0   0   0
-3.1898292 9.7824163 2.3754831   0   0   0
-3.1903167 9.7897080 -0.1797249   0   0   0
-3.1863196 9.7832383 2.7569405   0   0   0
-0.9643812 2.9751257 0.0545911   0   0   0
-3.1753994 9.8136543 0.9024106   0   0   0
-2.9723343 9.1970356 1.1867637   0   0   0
-1.9168474 5.9311341 -0.7653395   0   0   0
-2.9225060 9.0536552 -0.8323373   0   0   0
-3.1621160 9.8017963 2.0019680   0   0   0
-3.1574045 9.7871920 -0.5389557   0   0   0
-3.1615579 9.8059235 2.3786324   0   0   0
-3.1568205 9.8029450 2.7595287   0   0   0
-0.9332512 2.9137244 0.0534044   0   0   0
-2.5821214 8.0859827 1.0422266   0   0   0
-1.9003592 5.9510261 -0.7670457   0   0   0
-2.8866471 9.0505143 -0.8311172   0   0   0
-3.1326520 9.8277386 2.0050209   0   0   0
-2.9436773 9.2348884 -0.5079728   0   0   0
-3.1320417 9.8317540 2.3822317   0   0   0
-3.1296115 9.8359956 2.7657403   0   0   0
-0.9078890 2.8672366 0.0524968   0   0   0
-0.8906159 2.8143926 0.1547051   0   0   0
-1.0253366 3.2420842 -0.6609624   0   0   0
-2.6906141 8.5128103 0.7810898   0   0   0
-0.9513947 3.0119387 -0.5002774   0   0   0
-2.5445365 8.0604268 1.0378393   0   0   0
-2.8548213 9.0543364 -0.8305942   0   0   0
-3.1012249 9.8418178 2.0057842   0   0   0
-3.1046893 9.8588149 2.3862808   0   0   0
-0.9365013 2.9756344 -0.0544515   0   0   0
-3.0923399 9.8315769 2.7615992   0   0   0
-0.8883230 2.8398522 0.0519384   0   0   0
-0.8784026 2.8098592 0.1542864   0   0   0
-1.0503117 3.3618270 -0.6846227   0   0   0
-2.5759670 8.2501871 0.7561632   0   0   0
-0.9120430 2.9228418 -0.4849468   0   0   0
-3.0784050 9.8714829 1.2696348   0   0   0
-2.7124965 8.7034731 1.4438901   0   0   0
-2.8267533 9.0756600 -0.8316401   0   0   0
-3.0691856 9.8600813 2.0073106   0   0   0
-3.0731510 9.8788962 2.3885303   0   0   0
-0.9047369 2.9101418 -0.0531949   0   0   0
-3.0671736 9.8718290 2.7698814   0   0   0
-0.9084338 2.9383060 0.0536836   0   0   0
-0.8537502 2.7631422 0.1515649   0   0   0
-1.0391578 3.3652915 -0.6846227   0   0   0
-2.5427192 8.2396460 0.7544201   0   0   0
-2.4866889 8.0680749 1.0366206   0   0   0
-2.8019174 9.1021218 -0.8332089   0   0   0
-3.0410897 9.8852166 2.0103636   0   0   0
-0.9044030 2.9398081 -0.1611947   0   0   0
-3.0455287 9.9057970 2.3925794   0   0   0
-0.8915576 2.9016570 -0.0529855   0   0   0
-3.0383901 9.8948730 2.7735049   0   0   0
-1.0274044 3.3688983 -0.6846227   0   0   0
-2.4631354 8.0918984 1.0385705   0   0   0
-0.9006254 2.9587368 -0.3797449   0   0   0
-3.0117018 9.9126780 2.0137981   0   0   0
-3.0131971 9.9238263 2.3943790   0   0   0
-0.8872300 2.9238868 -0.0533346   0   0   0
-3.0066351 9.9146623 2.7760931   0   0   0
-0.8349225 2.7688894 0.1515649   0   0   0
-1.0094295 3.3497297 -0.6800433   0   0   0
-1.8439403 6.1306197 -0.7860573   0   0   0
-2.6572354 8.8402073 1.4620365   0   0   0
-2.9855875 9.9451749 2.0183776   0   0   0
-0.8752484 2.9173550 -0.1596247   0   0   0
-2.9825119 9.9412300 2.3961786   0   0   0
-2.9770673 9.9356815 2.7791989   0   0   0
-0.8242846 2.7720749 0.1515649   0   0   0
-1.0032709 3.3761640 -0.6846227   0   0   0
-2.7724868 9.3358197 0.8520345   0   0   0
-1.8272134 6.1646178 -0.7894696   0   0   0
-2.6260788 8.8598148 1.4636009   0   0   0
-0.8884146 2.9992374 -0.2736690   0   0   0
-2.9496080 9.9640954 2.0199040   0   0   0
-0.8702726 2.9417615 -0.1607761   0   0   0
-2.9503163 9.9792854 2.4024773   0   0   0
-2.9399900 9.9507447 2.7802342   0   0   0
-0.8146032 2.7749353 0.1515649   0   0   0
-0.9914798 3.3796455 -0.6846227   0   0   0
-2.8536698 9.7335594 0.8874198   0   0   0
-1.2759928 4.3522734 -0.7183471   0   0   0
-2.9263640 9.9879680 1.2779219   0   0   0
-1.8000670 6.1477819 -0.7865447   0   0   0
-2.5940268 8.8651358 1.4629751   0   0   0
-2.9204068 9.9870122 2.0225754   0   0   0
-0.8588319 2.9388800 -0.1604620   0   0   0
-2.9237631 10.0114610 2.4078761   0   0   0
-2.9090239 9.9739287 2.7838576   0   0   0
-0.8269247 2.8500064 0.0517987   0   0   0
-0.8053967 2.7776213 0.1515649   0   0   0
-0.9802671 3.3829148 -0.6846227   0   0   0
-2.6096763 9.0119114 0.8208328   0   0   0
-1.2607927 4.3567010 -0.7183471   0   0   0
-2.8931361 10.0038430 1.2786532   0   0   0
-1.7796985 6.1578419 -0.7870322   0   0   0
-2.5498062 8.8224510 1.4545277   0   0   0
-2.8881034 9.9995182 -0.9106032   0   0   0
-2.8877055 10.0046910 2.0241018   0   0   0
-0.8441398 2.9265078 -0.1596247   0   0   0
-2.8887987 10.0216060 2.4078761   0   0   0
-2.8871631 10.0225040 2.7947280   0   0   0
-0.7781117 2.7189701 0.1482154   0   0   0
-0.9684525 3.3863159 -0.6846227   0   0   0
-2.5858680 9.0477856 0.8232732   0   0   0
-2.6767702 9.3720368 1.1967570   0   0   0
-1.7581790 6.1598921 -0.7865447   0   0   0
-2.8602811 10.0344480 -0.9128692   0   0   0
-2.8598947 10.0330920 2.0279180   0   0   0
-0.8333362 2.9254493 -0.1594153   0   0   0
-2.8598184 10.0461250 2.4114753   0   0   0
-2.8563866 10.0473870 2.7988692   0   0   0
-0.7545029 2.6716955 0.1454940   0   0   0
-0.9566261 3.3896758 -0.6846227   0   0   0
-2.5591369 9.0740151 0.8248420   0   0   0
-2.6380966 9.3664987 1.1948070   0   0   0
-1.7377425 6.1698132 -0.7870322   0   0   0
-2.8263996 10.0417800 1.6522608   0   0   0
-2.8273948 10.0520430 -0.9135665   0   0   0
-2.4745975 8.8036609 1.7775766   0   0   0
-0.8199076 2.9188698 -0.1588920   0   0   0
-2.8261384 10.0677970 2.4141747   0   0   0
-0.7890518 2.8109074 -0.0509610   0   0   0
-2.8228626 10.0628760 2.8004221   0   0   0
-0.7867852 2.8198478 0.0511006   0   0   0
-0.7623274 2.7358798 0.1488435   0   0   0
-0.9447882 3.3929944 -0.6846227   0   0   0
-2.6091490 9.3828456 1.1957820   0   0   0
-1.7310771 6.2293948 -0.7938569   0   0   0
-2.4852933 8.9495458 1.4711097   0   0   0
-2.7944206 10.0695300 -0.9142637   0   0   0
-2.4396150 8.7910092 1.7733788   0   0   0
-0.8112913 2.9254219 -0.1591013   0   0   0
-2.7979413 10.0958930 2.4186737   0   0   0
-0.7648246 2.7616114 -0.0500186   0   0   0
-2.7918418 10.0875640 2.8045632   0   0   0
-0.7769373 2.8225771 0.0511006   0   0   0
-0.7447753 2.7075810 0.1471687   0   0   0
-0.9418572 3.4263974 -0.6907286   0   0   0
-2.5010075 9.1046728 0.8260621   0   0   0
-1.7156197 6.2583729 -0.7967818   0   0   0
-2.7683831 10.1056440 -0.9167041   0   0   0
-2.3575941 8.6120069 1.7355986   0   0   0
-0.7915883 2.8935595 -0.1572172   0   0   0
-2.7667941 10.1206360 2.4222730   0   0   0
-0.7582992 2.7737770 -0.0501931   0   0   0
-2.7629569 10.1135380 2.8092219   0   0   0
-0.7675730 2.8251379 0.0511006   0   0   0
-0.7311357 2.6947437 0.1463313   0   0   0
-0.9170473 3.3822932 -0.6811881   0   0   0
-2.4723373 9.1248858 0.8271080   0   0   0
-1.1860939 4.3776275 -0.7183471   0   0   0
-2.7413276 10.1246740 1.2879152   0   0   0
-1.6979676 6.2755249 -0.7982442   0   0   0
-2.4196782 8.9490931 1.4682939   0   0   0
-2.7372486 10.1306330 -0.9180986   0   0   0
-0.7746997 2.8691737 -0.1557518   0   0   0
-2.7377866 10.1466880 2.4263221   0   0   0
-0.7397622 2.7435845 -0.0495997   0   0   0
-2.7316580 10.1380440 2.8133630   0   0   0
-0.7411448 2.7659902 0.0499837   0   0   0
-0.7180628 2.6817191 0.1454940   0   0   0
-0.9103933 3.4023844 -0.6846227   0   0   0
-2.4446378 9.1426580 0.8279796   0   0   0
-1.1708059 4.3817411 -0.7183471   0   0   0
-2.6726823 10.0095180 1.2720722   0   0   0
-1.6780986 6.2890856 -0.7992191   0   0   0
-2.3813311 8.9246216 1.4629751   0   0   0
-2.7108256 10.1666060 -0.9205389   0   0   0
-2.3787856 8.9275913 1.7958943   0   0   0
-0.7559435 2.8390502 -0.1539724   0   0   0
-2.7038546 10.1618330 2.4276718   0   0   0
-0.7435148 2.7943340 -0.0504724   0   0   0
-2.7059667 10.1769180 2.8216452   0   0   0
-0.7227677 2.7336340 0.0493554   0   0   0
-0.6974807 2.6417254 0.1431912   0   0   0
-0.8985113 3.4055416 -0.6846227   0   0   0
-2.4116932 9.1472826 0.8276309   0   0   0
-1.1562691 4.3855995 -0.7183471   0   0   0
-2.5909235 9.8340453 1.2486733   0   0   0
-1.6703747 6.3445274 -0.8055564   0   0   0
-2.6793677 10.1841700 1.6679043   0   0   0
-2.6753210 10.1760070 -0.9205389   0   0   0
-0.7378973 2.8087024 -0.1521930   0   0   0
-2.6721213 10.1782830 2.4294714   0   0   0
-0.7327413 2.7930438 -0.0504025   0   0   0
-2.6665070 10.1713520 2.8175041   0   0   0
-0.7238329 2.7788374 0.0501233   0   0   0
-0.6932862 2.6634725 0.1442379   0   0   0
-0.8965025 3.4466578 -0.6922550   0   0   0
-2.4073151 9.2617026 0.8372181   0   0   0
-2.5967537 10.0048750 1.2691473   0   0   0
-1.6540867 6.3775082 -0.8089687   0   0   0
-2.6438020 10.1934610 1.6679043   0   0   0
-2.6437827 10.2007130 -0.9219335   0   0   0
-2.6476680 10.2230500 2.0527232   0   0   0
-0.7260967 2.8055874 -0.1518790   0   0   0
-2.6426048 10.2181950 2.4366698   0   0   0
-0.7064648 2.7316965 -0.0492507   0   0   0
-2.6377533 10.2067840 2.8247511   0   0   0
-0.7185951 2.7967168 0.0504025   0   0   0
-0.6939120 2.7045682 0.1463313   0   0   0
-0.8747144 3.4117313 -0.6846227   0   0   0
-2.4135402 9.4205935 0.8508144   0   0   0
-2.6162413 10.2192000 1.2952274   0   0   0
-1.6358810 6.3944972 -0.8104311   0   0   0
-2.6150536 10.2294210 1.6722844   0   0   0
-2.6130908 10.2291830 -0.9236766   0   0   0
-2.6093793 10.2146540 2.0492886   0   0   0
-0.7182710 2.8137854 -0.1521930   0   0   0
-2.6130406 10.2438960 2.4407189   0   0   0
-0.7033460 2.7593365 -0.0497045   0   0   0
-2.6021089 10.2159290 2.8247511   0   0   0
-0.6990108 2.7604379 0.0497045   0   0   0
-0.6731809 2.6603849 0.1438192   0   0   0
-0.8633959 3.4146132 -0.6846227   0   0   0
-2.3915605 9.4652473 0.8541263   0   0   0
-2.5815249 10.2321200 1.2957149   0   0   0
-1.6136959 6.3960373 -0.8099437   0   0   0
-2.5849805 10.2533600 1.6747874   0   0   0
-2.5811021 10.2455200 -0.9243738   0   0   0
-2.5780211 10.2408350 2.0527232   0   0   0
-0.7099114 2.8200254 -0.1524023   0   0   0
-2.5833348 10.2695140 2.4447681   0   0   0
-0.6941919 2.7616537 -0.0497045   0   0   0
-2.5729236 10.2432380 2.8299274   0   0   0
-0.6733818 2.6967764 0.0485177   0   0   0
-0.6653220 2.6664783 0.1440286   0   0   0
-0.8520679 3.4174576 -0.6846227   0   0   0
-2.3235529 9.3261958 0.8408786   0   0   0
-2.5542890 10.2675930 1.2991272   0   0   0
-1.6078123 6.4629974 -0.8177433   0   0   0
-2.5547773 10.2772120 1.6772903   0   0   0
-2.5509551 10.2694920 -0.9257683   0   0   0
-2.5506685 10.2760040 2.0580658   0   0   0
-0.7010371 2.8243025 -0.1525070   0   0   0
-2.5502039 10.2818070 2.4456679   0   0   0
-0.6850301 2.7639405 -0.0497045   0   0   0
-2.5454434 10.2779670 2.8371744   0   0   0
-0.6520070 2.6485098 0.0476102   0   0   0
-0.6545677 2.6609121 0.1436099   0   0   0
-0.8407305 3.4202643 -0.6846227   0   0   0
-2.2973659 9.3531985 0.8426217   0   0   0
-2.5197536 10.2740790 1.2988835   0   0   0
-1.5754961 6.4239506 -0.8121373   0   0   0
-2.5225635 10.2933020 1.6785418   0   0   0
-2.5217110 10.3053820 2.0622636   0   0   0
-0.6892766 2.8189720 -0.1520883   0   0   0
-2.5225742 10.3167090 2.4519665   0   0   0
-0.6758608 2.7661970 -0.0497045   0   0   0
-2.5163866 10.3069950 2.8428684   0   0   0
-0.6667991 2.7478222 0.0493554   0   0   0
-0.6457402 2.6630681 0.1436099   0   0   0
-0.8293839 3.4230335 -0.6846227   0   0   0
-2.4959314 10.3248280 1.3042457   0   0   0
-1.5625808 6.4638710 -0.8165246   0   0   0
-2.4939817 10.3246530 1.6822962   0   0   0
-2.4916661 10.3308650 2.0656982   0   0   0
-0.6827324 2.8328922 -0.1527163   0   0   0
-2.4938279 10.3477510 2.4573653   0   0   0
-0.6666840 2.7684230 -0.0497045   0   0   0
-2.4849053 10.3265530 2.8459742   0   0   0
-0.6506741 2.7270212 0.0489365   0   0   0
-0.6290252 2.6383287 0.1421445   0   0   0
-0.8235140 3.4567497 -0.6907286   0   0   0
-2.2386827 9.4042866 0.8457593   0   0   0
-2.4594818 10.3478550 1.3059519   0   0   0
-1.5469305 6.5084491 -0.8213994   0   0   0
-2.4579712 10.3495280 1.6847992   0   0   0
-2.4542450 10.3499070 2.0676063   0   0   0
-0.6681974 2.8178852 -0.1517743   0   0   0
-2.4585701 10.3762130 2.4618643   0   0   0
-0.6560491 2.7709625 -0.0497045   0   0   0
-2.4483492 10.3491780 2.8495977   0   0   0
-0.6242366 2.6551923 0.0476102   0   0   0
-0.6211862 2.6442888 0.1423538   0   0   0
-0.8048681 3.4288807 -0.6846227   0   0   0
-2.4296798 10.3752820 1.3083893   0   0   0
-2.4290383 10.3807030 1.6885536   0   0   0
-2.4234832 10.3732830 2.0706592   0   0   0
-0.6524879 2.7928571 -0.1503089   0   0   0
-2.4272488 10.3975930 2.4650137   0   0   0
-0.6468567 2.7731228 -0.0497045   0   0   0
-2.4219099 10.3911050 2.8589152   0   0   0
-0.6262569 2.7040028 0.0484479   0   0   0
-0.6088116 2.6307675 0.1415164   0   0   0
-0.8111853 3.5080422 -0.6998874   0   0   0
-2.4072547 10.4186690 0.9355297   0   0   0
-2.3997228 10.4026250 1.3108267   0   0   0
-2.3990382 10.4079500 1.6916823   0   0   0
-2.3943544 10.4042220 2.0752386   0   0   0
-0.6405353 2.7833272 -0.1496808   0   0   0
-2.3949394 10.4150800 2.4672632   0   0   0
-0.6376571 2.7752526 -0.0497045   0   0   0
-2.3908966 10.4141430 2.8630563   0   0   0
-0.6066131 2.6592739 0.0476102   0   0   0
-0.5965335 2.6171934 0.1406790   0   0   0
-0.8100107 3.5566546 -0.7090462   0   0   0
-2.3731340 10.4285370 0.9357041   0   0   0
-2.3687317 10.4260110 1.3127766   0   0   0
-2.3645110 10.4158480 1.6916823   0   0   0
-0.6531658 2.8795722 -0.2583296   0   0   0
-2.3637452 10.4293370 2.0786732   0   0   0
-0.6295361 2.7776445 -0.1492622   0   0   0
-2.3616798 10.4286670 2.4686129   0   0   0
-0.6284506 2.7773519 -0.0497045   0   0   0
-2.3597571 10.4370880 2.8671974   0   0   0
-0.5850650 2.6067429 0.0466328   0   0   0
-2.3491396 10.4750900 0.5626115   0   0   0
-2.3393290 10.4484230 0.9367499   0   0   0
-2.3357879 10.4497140 1.3147265   0   0   0
-1.4775136 6.6100159 -0.8316364   0   0   0
-2.3328749 10.4452450 1.6951239   0   0   0
-0.6326955 2.8351653 -0.2541462   0   0   0
-2.3307437 10.4528540 2.0817261   0   0   0
-0.6198365 2.7798251 -0.1492622   0   0   0
-2.3303479 10.4596720 2.4740117   0   0   0
-2.3262466 10.4584620 2.8708208   0   0   0
-0.5725345 2.5910953 0.0463187   0   0   0
-2.3080987 10.4716890 0.9381444   0   0   0
-2.3053887 10.4767900 1.3171639   0   0   0
-1.4555859 6.6148792 -0.8316364   0   0   0
-2.3024662 10.4722170 1.6982526   0   0   0
-0.6284202 2.8605996 -0.2562379   0   0   0
-2.2960680 10.4605250 2.0817261   0   0   0
-0.6067610 2.7643079 -0.1483201   0   0   0
-2.3019116 10.4958950 2.4807602   0   0   0
-2.2911391 10.4642320 2.8703032   0   0   0
-0.5860830 2.6134132 0.1403650   0   0   0
-0.5821498 2.6367955 0.1415164   0   0   0
-0.5630338 2.5931763 0.0463187   0   0   0
-2.2746827 10.4853790 0.5622975   0   0   0
-0.7610769 3.5112183 -0.6983609   0   0   0
-2.2751849 10.5053920 0.9404105   0   0   0
-2.2686518 10.4929300 1.3181388   0   0   0
-1.4565013 6.7365854 -0.8462607   0   0   0
-2.2690734 10.5037550 1.7020070   0   0   0
-0.6137278 2.8434083 -0.2544948   0   0   0
-2.2622655 10.4899810 2.0859239   0   0   0
-0.5923560 2.7490453 -0.1473781   0   0   0
-2.2650687 10.5118820 2.4825598   0   0   0
-0.5660828 2.6293433 -0.0469470   0   0   0
-2.2613021 10.5122200 2.8811736   0   0   0
-0.5540136 2.5930736 0.0462838   0   0   0
-2.2440690 10.5123970 0.5633442   0   0   0
-0.7477910 3.5060426 -0.6968344   0   0   0
-2.2469795 10.5440570 0.9431995   0   0   0
-2.2371480 10.5159290 1.3200887   0   0   0
-1.4300234 6.7219619 -0.8438233   0   0   0
-2.2366935 10.5228150 1.7038842   0   0   0
-0.5985007 2.8181429 -0.2520544   0   0   0
-2.2311347 10.5147100 2.0893585   0   0   0
-2.2350476 10.5422120 2.4879587   0   0   0
-0.5561173 2.6253372 -0.0468423   0   0   0
-2.2276299 10.5253310 2.8827265   0   0   0
-0.5523079 2.6322713 0.0469470   0   0   0
-2.2079829 10.5322800 0.5639723   0   0   0
-0.7421804 3.5433478 -0.7037036   0   0   0
-2.2111753 10.5658730 0.9444196   0   0   0
-2.2050853 10.5551480 1.3239885   0   0   0
-1.4053765 6.7271580 -0.8438233   0   0   0
-2.2009357 10.5444790 1.7060743   0   0   0
-0.5824731 2.7930116 -0.2496141   0   0   0
-2.1989889 10.5535680 2.0954644   0   0   0
-2.2003652 10.5694110 2.4924577   0   0   0
-0.5464912 2.6273578 -0.0468423   0   0   0
-2.1925754 10.5504480 2.8873853   0   0   0
-2.1763245 10.5461450 0.1879624   0   0   0
-2.1786908 10.5669300 0.5654377   0   0   0
-2.1777320 10.5809530 0.9451169   0   0   0
-2.1740660 10.5818470 1.3264259   0   0   0
-1.3950457 6.7901158 -0.8511355   0   0   0
-2.1691345 10.5671990 1.7085772   0   0   0
-0.5704060 2.7812655 -0.2483939   0   0   0
-2.1667386 10.5742650 2.0981357   0   0   0
-0.5528711 2.6981591 -0.1443426   0   0   0
-2.1707756 10.6033770 2.4987563   0   0   0
-0.5385770 2.6330739 -0.0469121   0   0   0
-2.1614448 10.5765880 2.8925616   0   0   0
-0.5395345 2.6145040 0.0465979   0   0   0
-2.1434714 10.5732760 0.1883115   0   0   0
-2.1457569 10.5940450 0.5664844   0   0   0
-2.1447327 10.6080190 0.9468600   0   0   0
-2.1410423 10.6088300 1.3288633   0   0   0
-1.3595540 6.7365682 -0.8438233   0   0   0
-2.1384821 10.6056890 1.7135831   0   0   0
-0.5567593 2.7637081 -0.2466508   0   0   0
-2.1325260 10.5952370 2.1008070   0   0   0
-2.1383599 10.6338160 2.5041551   0   0   0
-2.1435269 10.6691460 -0.1899520   0   0   0
-2.1275540 10.5992210 2.8967028   0   0   0
-2.1138686 10.6077820 0.1888001   0   0   0
-2.1137339 10.6167730 0.5673218   0   0   0
-0.5205132 2.6167966 -0.5186188   0   0   0
-2.1138153 10.6365690 0.9487774   0   0   0
-2.1058504 10.6158720 1.3288633   0   0   0
-2.1086769 10.6398500 1.7179633   0   0   0
-0.5514614 2.7850836 -0.2483939   0   0   0
-2.1034751 10.6330650 2.1069129   0   0   0
-0.5398298 2.7313435 -0.1459127   0   0   0
-2.1045965 10.6484960 2.5059547   0   0   0
-2.0992252 10.6310730 -0.1891492   0   0   0
-2.0991243 10.6403340 2.9060202   0   0   0
-0.5313520 2.6447404 -0.0470866   0   0   0
-2.0817547 10.6304330 0.1890794   0   0   0
-2.0808167 10.6354850 0.5679498   0   0   0
-0.6899761 3.5298802 -0.6991242   0   0   0
-2.0834959 10.6689410 0.9510435   0   0   0
-0.5292043 2.7124090 -0.4377036   0   0   0
-2.0759524 10.6500750 1.3322757   0   0   0
-2.0756479 10.6584180 1.7198405   0   0   0
-0.5380371 2.7653841 -0.2464764   0   0   0
-2.0723237 10.6611810 2.1111107   0   0   0
-0.5331519 2.7428287 -0.1464360   0   0   0
-2.0711307 10.6649810 2.5082043   0   0   0
-2.0673876 10.6556440 -0.1894633   0   0   0
-2.0678720 10.6680980 2.9117143   0   0   0
-2.0529139 10.6706600 0.1896728   0   0   0
-2.0477986 10.6540950 0.5685778   0   0   0
-0.6849310 3.5668534 -0.7059933   0   0   0
-2.0503573 10.6875320 0.9520893   0   0   0
-0.5057049 2.6384865 -0.4255017   0   0   0
-2.0465974 10.6880950 1.3361755   0   0   0
-2.0417765 10.6730030 1.7210920   0   0   0
-0.5273678 2.7593253 -0.2457792   0   0   0
-2.0406407 10.6872790 2.1149269   0   0   0
-0.5263010 2.7563526 -0.1470640   0   0   0
-2.0386743 10.6871050 2.5118035   0   0   0
-2.0327895 10.6663700 -0.1895331   0   0   0
-2.0346519 10.6862840 2.9148201   0   0   0
-2.0163843 10.6918680 0.1899171   0   0   0
-2.0153920 10.6968580 0.5704619   0   0   0
-0.6725796 3.5731986 -0.7067565   0   0   0
-2.0137492 10.7086810 0.9533095   0   0   0
-0.8815492 4.6923962 -0.7562042   0   0   0
-2.0118040 10.7189360 1.3391003   0   0   0
-2.0070129 10.7037130 1.7248464   0   0   0
-2.0039841 10.7081940 2.1175982   0   0   0
-0.5195015 2.7759316 -0.1480061   0   0   0
-2.0034299 10.7155760 2.5167524   0   0   0
-1.9980876 10.6973370 -0.1899520   0   0   0
-2.4214267 12.9763530 3.5370211   0   0   0
-1.9816459 10.7024290 0.1899869   0   0   0
-1.9849949 10.7309780 0.5719273   0   0   0
-0.6564456 3.5522425 -0.7021771   0   0   0
-1.9825675 10.7388120 0.9554012   0   0   0
-0.8588180 4.6564415 -0.7499468   0   0   0
-1.9791253 10.7411670 1.3410503   0   0   0
-0.4913641 2.6667455 -0.3329471   0   0   0
-1.9750832 10.7297370 1.7279751   0   0   0
-0.5073706 2.7590206 -0.2454306   0   0   0
-1.9713014 10.7302290 2.1206512   0   0   0
-0.5110151 2.7815679 -0.1482154   0   0   0
-1.9721062 10.7451610 2.5221512   0   0   0
-1.9680126 10.7334080 -0.1904756   0   0   0
-2.3867360 13.0299170 3.5494444   0   0   0
-1.9474902 10.7269890 0.1903010   0   0   0
-1.9503761 10.7535630 0.5727647   0   0   0
-0.6454420 3.5622394 -0.7037036   0   0   0
-1.9489736 10.7672330 0.9573187   0   0   0
-1.9423254 10.7519170 1.3415377   0   0   0
-1.2460667 6.8977140 -0.8606413   0   0   0
-1.9421781 10.7618380 1.7320424   0   0   0
-0.4850105 2.6901869 -0.2391554   0   0   0
-1.9362699 10.7505690 2.1233225   0   0   0
-0.5005944 2.7794034 -0.1480061   0   0   0
-1.9383825 10.7730770 2.5271001   0   0   0
-1.9351330 10.7657980 -0.1909293   0   0   0
-2.3412386 13.0381690 3.5494444   0   0   0
-1.9171677 10.7629180 0.1908246   0   0   0
-1.9168048 10.7717690 0.5733927   0   0   0
-0.6322512 3.5566284 -0.7021771   0   0   0
-1.9181346 10.8011000 0.9597590   0   0   0
-1.9101242 10.7778450 1.3439751   0   0   0
-1.2276896 6.9272184 -0.8638099   0   0   0
-1.9082018 10.7779450 1.7336067   0   0   0
-0.4774749 2.6996282 -0.2398526   0   0   0
-1.9064161 10.7897980 2.1298100   0   0   0
-0.4965874 2.8105501 -0.1495762   0   0   0
-1.9050182 10.7928790 2.5302495   0   0   0
-1.9015052 10.7839720 -0.1911388   0   0   0
-2.3040219 13.0801070 3.5587619   0   0   0
-1.8832022 10.8013920 0.1913831   0   0   0
-1.8807384 10.7983990 0.5744395   0   0   0
-0.6185382 3.5550535 -0.7014139   0   0   0
-1.8798985 10.8159100 0.9604563   0   0   0
-1.8746796 10.8082440 1.3469000   0   0   0
-1.2077197 6.9629658 -0.8677097   0   0   0
-1.8713838 10.8004370 1.7361097   0   0   0
-1.8715398 10.8237960 2.1351527   0   0   0
-0.4885117 2.8281811 -0.1504135   0   0   0
-1.8694278 10.8228330 2.5356483   0   0   0
-1.8633273 10.7987510 -0.1912784   0   0   0
-2.2603315 13.1132130 3.5654912   0   0   0
-1.8493947 10.8194050 0.1915925   0   0   0
-1.8496257 10.8321390 0.5759049   0   0   0
-0.6179696 3.6228853 -0.7143889   0   0   0
-1.8473680 10.8417250 0.9621994   0   0   0
-1.8448175 10.8496270 1.3512873   0   0   0
-1.1896145 6.9962875 -0.8713658   0   0   0
-1.8401891 10.8338490 1.7404899   0   0   0
-1.8369488 10.8376850 2.1366791   0   0   0
-0.4794639 2.8317547 -0.1505182   0   0   0
-1.8387329 10.8597150 2.5428467   0   0   0
-1.8318424 10.8305030 -0.1917321   0   0   0
-2.2203743 13.1415900 3.5711852   0   0   0
-1.8126068 10.8317110 0.1916972   0   0   0
-1.8157548 10.8621680 0.5771609   0   0   0
-0.6007927 3.5979102 -0.7090462   0   0   0
-1.8121345 10.8638290 0.9635939   0   0   0
-1.8088896 10.8677500 1.3527497   0   0   0
-1.1616004 6.9788577 -0.8686847   0   0   0
-1.8068965 10.8674870 1.7448700   0   0   0
-1.8026416 10.8653360 2.1408769   0   0   0
-0.4723590 2.8471214 -0.1512509   0   0   0
-1.8046376 10.8891370 2.5482455   0   0   0
-1.7976184 10.8585320 -0.1921161   0   0   0
-2.1789007 13.1759440 3.5784321   0   0   0
-1.7805596 10.8613430 0.1921161   0   0   0
-1.7816611 10.8799560 0.5777890   0   0   0
-0.5850551 3.5766326 -0.7044668   0   0   0
-1.7805969 10.8973070 0.9660342   0   0   0
-1.7741186 10.8815250 1.3537247   0   0   0
-1.1483537 7.0434073 -0.8762406   0   0   0
-1.7746591 10.8968150 1.7486245   0   0   0
-1.7700649 10.8925700 2.1450747   0   0   0
-0.4641964 2.8565577 -0.1516696   0   0   0
-1.7710160 10.9104500 2.5518448   0   0   0
-1.7660811 10.8920690 -0.1926048   0   0   0
-2.1401376 13.2136090 3.5867143   0   0   0
-1.7461154 10.9013630 0.1927095   0   0   0
-0.4793585 2.9960832 -0.7004976   0   0   0
-1.7436654 10.8982460 0.5784170   0   0   0
-0.5756601 3.6020168 -0.7090462   0   0   0
-1.7444133 10.9273700 0.9681260   0   0   0
-1.7385953 10.9154000 1.3571370   0   0   0
-1.1219061 7.0436481 -0.8757531   0   0   0
-1.7378121 10.9227550 1.7517531   0   0   0
-0.4834476 3.0420585 -0.2694856   0   0   0
-1.7341311 10.9241910 2.1500358   0   0   0
-0.4563525 2.8780452 -0.1527163   0   0   0
-1.7319308 10.9226420 2.5531945   0   0   0
-1.7273991 10.9063690 -0.1927444   0   0   0
-2.0956173 13.2461700 3.5934436   0   0   0
-1.7136722 10.9308000 0.1931283   0   0   0
-0.4694205 2.9976563 -0.7004976   0   0   0
-1.7124598 10.9355400 0.5800917   0   0   0
-0.5628020 3.5980869 -0.7079014   0   0   0
-1.7106277 10.9488430 0.9695205   0   0   0
-1.7066694 10.9485650 1.3605493   0   0   0
-1.1034343 7.0787123 -0.8796529   0   0   0
-1.7034048 10.9401690 1.7536304   0   0   0
-0.4647841 2.9885207 -0.2646048   0   0   0
-1.7009093 10.9492820 2.1538519   0   0   0
-0.4495622 2.8973055 -0.1536584   0   0   0
-1.6998837 10.9552850 2.5594931   0   0   0
-1.6955106 10.9397020 -0.1932330   0   0   0
-2.0567042 13.2855010 3.6022435   0   0   0
-1.6779287 10.9525280 0.1934076   0   0   0
-0.4560061 2.9800135 -0.6959986   0   0   0
-1.6785067 10.9690910 0.5815571   0   0   0
-0.5502389 3.6000296 -0.7079014   0   0   0
-1.6736014 10.9626260 0.9702177   0   0   0
-1.6732238 10.9858550 1.3644492   0   0   0
-1.0811094 7.0982205 -0.8816028   0   0   0
-1.6687713 10.9694830 1.7573848   0   0   0
-0.4489618 2.9546689 -0.2614672   0   0   0
-1.6673923 10.9862090 2.1599578   0   0   0
-1.3033726 8.5877355 -0.4552181   0   0   0
-1.6654293 10.9862000 2.5653418   0   0   0
-1.6597085 10.9613710 -0.1935123   0   0   0
-2.0097389 13.2887790 3.6012082   0   0   0
-1.6433772 10.9698980 0.1936170   0   0   0
-0.4490053 3.0007821 -0.7004976   0   0   0
-1.6456694 10.9983000 0.5828132   0   0   0
-0.5411996 3.6212513 -0.7117176   0   0   0
-1.6422393 11.0016150 0.9731810   0   0   0
-1.6379537 10.9991970 1.3654241   0   0   0
-1.0619507 7.1312182 -0.8852589   0   0   0
-1.6347109 10.9905880 1.7598877   0   0   0
-0.4356480 2.9324923 -0.2593755   0   0   0
-1.6297989 10.9839100 2.1584314   0   0   0
-1.6335596 11.0225050 2.5725403   0   0   0
-1.6268639 10.9905530 -0.1939311   0   0   0
-1.9718766 13.3374140 3.6125962   0   0   0
-0.4438480 2.9244507 -0.1550191   0   0   0
-1.6066276 10.9995920 0.1940359   0   0   0
-0.4380039 3.0024077 -0.7004976   0   0   0
-1.6082307 11.0240210 0.5838599   0   0   0
-0.5301880 3.6387525 -0.7147705   0   0   0
-1.6059223 11.0351630 0.9756214   0   0   0
-1.5993398 11.0169140 1.3668866   0   0   0
-1.0380879 7.1507786 -0.8872088   0   0   0
-1.5983857 11.0238740 1.7642679   0   0   0
-0.4234692 2.9242102 -0.2585039   0   0   0
-1.5943075 11.0228410 2.1649189   0   0   0
-1.5916162 11.0042340 -0.5827085   0   0   0
-1.5959353 11.0477050 2.5770393   0   0   0
-1.5905684 11.0241500 -0.1944198   0   0   0
-1.9276634 13.3770580 3.6213961   0   0   0
-1.5752269 11.0404930 0.1946641   0   0   0
-0.4280452 3.0038436 -0.7004976   0   0   0
-1.5730737 11.0391800 0.5843833   0   0   0
-0.5211614 3.6618710 -0.7189683   0   0   0
-1.5648334 11.0088660 0.9728324   0   0   0
-1.5661416 11.0457420 1.3698114   0   0   0
-1.0168774 7.1718706 -0.8894025   0   0   0
-1.5651441 11.0525850 1.7680223   0   0   0
-0.4173970 2.9512443 -0.2607700   0   0   0
-1.5613153 11.0533390 2.1698799   0   0   0
-1.5601443 11.0450490 -0.5845926   0   0   0
-1.5609244 11.0645150 2.5797387   0   0   0
-1.5567922 11.0491660 -0.1947689   0   0   0
-1.8889460 13.4235490 3.6322665   0   0   0
-0.4299965 2.9729420 -0.1574266   0   0   0
-1.5413655 11.0654610 0.1950132   0   0   0
-1.5386595 11.0601610 0.5852207   0   0   0
-0.5073943 3.6519117 -0.7166786   0   0   0
-1.5028507 10.8304610 0.9566214   0   0   0
-1.5278711 11.0390770 1.3683490   0   0   0
