ply
format ascii 1.0
element vertex 1103
property float x
property float y
property float z
property uchar red
property uchar green
property uchar blue
end_header
2.2361288 -4.3981339 1.3220477   0   0   0
2.2496811 -4.4420469 0.0869130   0   0   0
2.2407534 -4.4263355 0.2600050   0   0   0
1.1071267 -2.1879415 -0.4766409   0   0   0
2.2472374 -4.4429919 0.4356044   0   0   0
1.3083820 -2.5879111 -0.4592916   0   0   0
2.2365662 -4.4257291 0.6088592   0   0   0
1.6352263 -3.2371978 -0.4453106   0   0   0
2.2392183 -4.4348218 0.7868654   0   0   0
2.2594013 -4.4747948 -0.4385677   0   0   0
2.2344378 -4.4272744 0.9639670   0   0   0
2.2444663 -4.4490750 -0.2611564   0   0   0
2.2313009 -4.4248983 1.1441011   0   0   0
2.2429490 -4.4499292 -0.0869828   0   0   0
2.2251104 -4.4145382 1.3246359   0   0   0
2.2332645 -4.4480856 0.0868781   0   0   0
2.2272016 -4.4398742 0.2603190   0   0   0
1.1047643 -2.2023218 -0.4789306   0   0   0
2.2299287 -4.4472471 0.4352558   0   0   0
1.3099619 -2.6136542 -0.4630460   0   0   0
2.2211039 -4.4335092 0.6088592   0   0   0
1.6292494 -3.2535359 -0.4467730   0   0   0
2.2174236 -4.4280926 0.7843624   0   0   0
2.2348496 -4.4648377 -0.4368246   0   0   0
2.2224840 -4.4420702 0.9654935   0   0   0
2.2280291 -4.4550962 -0.2610518   0   0   0
2.2123562 -4.4256877 1.1423015   0   0   0
2.2229330 -4.4487874 -0.0868083   0   0   0
2.2106418 -4.4261205 1.3256711   0   0   0
2.2186152 -4.4576443 0.0869130   0   0   0
2.2186935 -4.4597528 0.2610518   0   0   0
1.0970701 -2.2061647 -0.4789306   0   0   0
2.2099572 -4.4460832 0.4343842   0   0   0
1.2955569 -2.6075965 -0.4611688   0   0   0
2.2109123 -4.4519028 0.6103217   0   0   0
1.6125867 -3.2485348 -0.4453106   0   0   0
2.2011789 -4.4361901 0.7843624   0   0   0
2.1962258 -4.4262078 -0.4322925   0   0   0
2.2052201 -4.4462834 0.9647303   0   0   0
2.2257711 -4.4896878 -0.2626218   0   0   0
2.2029510 -4.4456061 1.1454508   0   0   0
2.2065028 -4.4547278 -0.0867734   0   0   0
2.1908925 -4.4251537 1.3230830   0   0   0
2.1959636 -4.4510150 0.0866337   0   0   0
2.2022292 -4.4656790 0.2609471   0   0   0
1.0806823 -2.1923714 -0.4751144   0   0   0
2.2058717 -4.4770042 0.4366503   0   0   0
1.2777192 -2.5943818 -0.4580401   0   0   0
2.1944820 -4.4578122 0.6100779   0   0   0
1.6047431 -3.2612686 -0.4462855   0   0   0
2.1916887 -4.4540997 0.7862396   0   0   0
2.1825208 -4.4374228 -0.4326411   0   0   0
2.1879539 -4.4504302 0.9639670   0   0   0
2.1995152 -4.4759196 -0.2613658   0   0   0
2.1951519 -4.4690109 1.1494999   0   0   0
2.1935834 -4.4677879 -0.0868781   0   0   0
2.1762836 -4.4345087 1.3236006   0   0   0
2.1874412 -4.4730244 0.0869130   0   0   0
2.1857505 -4.4715447 0.2608424   0   0   0
1.0695754 -2.1890744 -0.4735879   0   0   0
2.1867332 -4.4775157 0.4359530   0   0   0
1.2686553 -2.5988261 -0.4580401   0   0   0
2.1762964 -4.4600931 0.6093467   0   0   0
1.5855175 -3.2507926 -0.4440919   0   0   0
2.1813234 -4.4723757 0.7881168   0   0   0
2.1740027 -4.4593413 -0.4340356   0   0   0
2.1767057 -4.4668648 0.9658751   0   0   0
2.1830034 -4.4817745 -0.2612611   0   0   0
2.1786857 -4.4748940 1.1490500   0   0   0
2.1840998 -4.4880042 -0.0871224   0   0   0
2.1633261 -4.4472900 1.3251535   0   0   0
2.1735585 -4.4842317 0.0869828   0   0   0
2.1657744 -4.4701601 0.2603190   0   0   0
1.0653504 -2.1998625 -0.4751144   0   0   0
2.1815075 -4.5066415 0.4380448   0   0   0
1.2561345 -2.5961260 -0.4567886   0   0   0
2.1650360 -4.4765979 0.6105654   0   0   0
1.5568810 -3.2205630 -0.4392171   0   0   0
2.1622596 -4.4728488 0.7868654   0   0   0
2.1757602 -4.5027816 -0.4375218   0   0   0
2.1611002 -4.4744357 0.9658751   0   0   0
2.1673457 -4.4893673 -0.2612611   0   0   0
2.1638991 -4.4842269 1.1494999   0   0   0
2.1649454 -4.4883963 -0.0869828   0   0   0
2.1527629 -4.4631395 1.3277417   0   0   0
2.1665516 -4.5098163 0.0873318   0   0   0
2.1518866 -4.4812937 0.2605284   0   0   0
1.0457715 -2.1787887 -0.4697717   0   0   0
2.1605921 -4.5034509 0.4369989   0   0   0
1.2581687 -2.6236500 -0.4608559   0   0   0
2.1545448 -4.4948685 0.6120278   0   0   0
1.5507760 -3.2367192 -0.4406795   0   0   0
2.1457797 -4.4785878 0.7865525   0   0   0
2.1548659 -4.4995673 -0.4364760   0   0   0
2.1480114 -4.4872646 0.9670200   0   0   0
2.1620063 -4.5185252 -0.2625172   0   0   0
2.1457107 -4.4864789 1.1481502   0   0   0
2.1544396 -4.5067509 -0.0871922   0   0   0
2.1388889 -4.4762290 1.3292946   0   0   0
2.1439192 -4.5029075 0.0870526   0   0   0
2.1405951 -4.4999722 0.2611564   0   0   0
1.0499666 -2.2072463 -0.4751144   0   0   0
2.1517034 -4.5253601 0.4383934   0   0   0
1.2388276 -2.6066163 -0.4571015   0   0   0
2.1388417 -4.5023619 0.6120278   0   0   0
1.5394683 -3.2421127 -0.4406795   0   0   0
2.1318281 -4.4896195 0.7871782   0   0   0
2.1118090 -4.4494635 -0.4308980   0   0   0
2.1348593 -4.5000565 0.9681648   0   0   0
2.1487877 -4.5314584 -0.2628312   0   0   0
2.1358794 -4.5062681 1.1512995   0   0   0
2.1335580 -4.5034010 -0.0869828   0   0   0
2.1223792 -4.4798055 1.3282593   0   0   0
2.1281881 -4.5103638 0.0870526   0   0   0
2.1291325 -4.5164498 0.2616798   0   0   0
1.0472784 -2.2215529 -0.4774041   0   0   0
2.1307982 -4.5220294 0.4373475   0   0   0
1.2263545 -2.6037764 -0.4558500   0   0   0
2.1264945 -4.5169844 0.6130028   0   0   0
1.5256062 -3.2420782 -0.4399483   0   0   0
2.1220846 -4.5117031 0.7896812   0   0   0
2.1191381 -4.5074812 0.9681648   0   0   0
2.1338063 -4.5407391 -0.2629358   0   0   0
2.1217936 -4.5172240 1.1521993   0   0   0
2.1229243 -4.5216818 -0.0871922   0   0   0
2.1100492 -4.4962986 1.3308475   0   0   0
2.1166660 -4.5268223 0.0872271   0   0   0
2.1149893 -4.5252948 0.2617845   0   0   0
1.0345317 -2.2145226 -0.4751144   0   0   0
2.1183723 -4.5366608 0.4380448   0   0   0
1.2130809 -2.5990913 -0.4542857   0   0   0
2.1040004 -4.5099881 0.6110529   0   0   0
1.5151189 -3.2491829 -0.4401921   0   0   0
2.1079464 -4.5205057 0.7899941   0   0   0
2.0958454 -4.4966037 -0.4340356   0   0   0
2.1058784 -4.5201897 0.9693097   0   0   0
2.1128844 -4.5372963 -0.2623078   0   0   0
2.1093020 -4.5316699 1.1539989   0   0   0
2.1164065 -4.5490085 -0.0875762   0   0   0
2.0992019 -4.5120289 1.3334357   0   0   0
2.1033736 -4.5396265 0.0873318   0   0   0
2.0992281 -4.5348287 0.2618891   0   0   0
1.0185479 -2.2003041 -0.4712982   0   0   0
2.1142367 -4.5693426 0.4404851   0   0   0
1.2031718 -2.6015169 -0.4539728   0   0   0
2.0899107 -4.5209087 0.6115404   0   0   0
1.4912781 -3.2274216 -0.4365360   0   0   0
2.0938486 -4.5335813 0.7909327   0   0   0
2.1102108 -4.5690087 -0.4403108   0   0   0
2.0925558 -4.5328605 0.9704546   0   0   0
2.1003807 -4.5518981 -0.2627265   0   0   0
2.0902060 -4.5319267 1.1521993   0   0   0
2.0971658 -4.5491043 -0.0874366   0   0   0
2.0883098 -4.5319743 1.3370592   0   0   0
2.0908519 -4.5542103 0.0874715   0   0   0
2.0850115 -4.5435803 0.2619938   0   0   0
1.0190463 -2.2216910 -0.4751144   0   0   0
2.1082380 -4.5984283 0.4425769   0   0   0
1.2006669 -2.6200673 -0.4564758   0   0   0
2.0807304 -4.5426145 0.6134903   0   0   0
1.4866141 -3.2470468 -0.4384859   0   0   0
2.0722567 -4.5282890 0.7887426   0   0   0
2.0892747 -4.5654767 -0.4392649   0   0   0
2.0767204 -4.5401372 0.9704546   0   0   0
2.0919530 -4.5755498 -0.2636686   0   0   0
2.0727539 -4.5356504 1.1512995   0   0   0
2.0804429 -4.5545782 -0.0874017   0   0   0
2.0708617 -4.5336028 1.3355063   0   0   0
2.0732860 -4.5578405 0.0874017   0   0   0
2.0699655 -4.5526488 0.2620985   0   0   0
1.0031622 -2.2073612 -0.4712982   0   0   0
2.0789894 -4.5767353 0.4397879   0   0   0
1.1866139 -2.6134505 -0.4545986   0   0   0
2.0673221 -4.5552729 0.6142215   0   0   0
1.4736306 -3.2486007 -0.4379984   0   0   0
2.0613317 -4.5462895 0.7906198   0   0   0
2.0601615 -4.5437086 -0.4364760   0   0   0
2.0641014 -4.5545114 0.9719810   0   0   0
2.0825616 -4.5973786 -0.2645059   0   0   0
2.0633392 -4.5570600 1.1548987   0   0   0
2.0670052 -4.5672780 -0.0875064   0   0   0
2.0518378 -4.5337639 1.3334357   0   0   0
2.0540770 -4.5577575 0.0872620   0   0   0
2.0606452 -4.5765956 0.2630405   0   0   0
1.0002871 -2.2215904 -0.4735879   0   0   0
2.0580948 -4.5730632 0.4387420   0   0   0
1.1742425 -2.6103707 -0.4533471   0   0   0
2.0554789 -4.5715139 0.6154402   0   0   0
1.4671643 -3.2645886 -0.4394609   0   0   0
2.0494833 -4.5603072 0.7918713   0   0   0
2.0736792 -4.6163001 -0.4427512   0   0   0
2.0465823 -4.5581067 0.9712178   0   0   0
2.0632300 -4.5973314 -0.2640872   0   0   0
2.0522051 -4.5749029 1.1575981   0   0   0
2.0559586 -4.5854134 -0.0877158   0   0   0
2.0383672 -4.5483054 1.3355063   0   0   0
2.0414160 -4.5722036 0.0874017   0   0   0
2.0454573 -4.5834038 0.2630405   0   0   0
0.9877276 -2.2143108 -0.4712982   0   0   0
2.0567233 -4.6129743 0.4418796   0   0   0
1.1578867 -2.5982148 -0.4505313   0   0   0
2.0362779 -4.5714077 0.6144652   0   0   0
1.4444561 -3.2443015 -0.4360485   0   0   0
2.0367709 -4.5768120 0.7934356   0   0   0
2.0575526 -4.6235104 -0.4427512   0   0   0
2.0346485 -4.5741919 0.9731259   0   0   0
2.0463583 -4.6026804 -0.2639826   0   0   0
2.0346405 -4.5784769 1.1566983   0   0   0
2.0431870 -4.5998722 -0.0878554   0   0   0
2.0256139 -4.5624556 1.3375768   0   0   0
2.0319147 -4.5939320 0.0876809   0   0   0
2.0270231 -4.5850357 0.2627265   0   0   0
0.9895144 -2.2392940 -0.4758776   0   0   0
2.0406085 -4.6201255 0.4418796   0   0   0
1.1575858 -2.6221190 -0.4539728   0   0   0
2.0235139 -4.5857524 0.6154402   0   0   0
1.4187032 -3.2166308 -0.4316612   0   0   0
2.0199882 -4.5799262 0.7928099   0   0   0
2.0414010 -4.6306645 -0.4427512   0   0   0
2.0242107 -4.5938423 0.9757972   0   0   0
2.0334996 -4.6171068 -0.2644012   0   0   0
2.0186462 -4.5855513 1.1566983   0   0   0
2.0351718 -4.6252797 -0.0882045   0   0   0
2.0151198 -4.5818771 1.3412003   0   0   0
2.0158665 -4.6009967 0.0876809   0   0   0
2.0158131 -4.6030605 0.2633545   0   0   0
0.9816917 -2.2427345 -0.4758776   0   0   0
2.0260660 -4.6308711 0.4422282   0   0   0
1.1468429 -2.6225239 -0.4533471   0   0   0
2.0090844 -4.5964257 0.6159277   0   0   0
1.4058770 -3.2179253 -0.4311737   0   0   0
2.0063614 -4.5923799 0.7937485   0   0   0
2.0252246 -4.6377621 -0.4427512   0   0   0
2.0073775 -4.5990808 0.9754156   0   0   0
2.0205651 -4.6314994 -0.2648199   0   0   0
2.0026273 -4.5925697 1.1566983   0   0   0
2.0062305 -4.6030252 -0.0876460   0   0   0
2.0022000 -4.5959677 1.3432708   0   0   0
2.0029781 -4.6153429 0.0878205   0   0   0
2.0005280 -4.6119012 0.2634592   0   0   0
0.9597999 -2.2137252 -0.4690085   0   0   0
2.0130578 -4.6452276 0.4429255   0   0   0
1.1306152 -2.6101975 -0.4505313   0   0   0
2.0040694 -4.6289143 0.6193400   0   0   0
1.4056730 -3.2483187 -0.4345861   0   0   0
1.9911033 -4.6011683 0.7940613   0   0   0
2.0090234 -4.6448032 -0.4427512   0   0   0
1.9967650 -4.6186742 0.9780869   0   0   0
2.0067626 -4.6440245 -0.2651340   0   0   0
1.9943110 -4.6174223 1.1611973   0   0   0
1.9964913 -4.6246876 -0.0879252   0   0   0
1.9823541 -4.5919401 1.3401650   0   0   0
1.9836966 -4.6149578 0.0876809   0   0   0
1.9867825 -4.6243615 0.2637732   0   0   0
0.9520667 -2.2170620 -0.4690085   0   0   0
1.9905439 -4.6375792 0.4415310   0   0   0
1.1214970 -2.6141281 -0.4505313   0   0   0
1.9855522 -4.6304083 0.6186088   0   0   0
1.4021458 -3.2714513 -0.4370235   0   0   0
1.9773647 -4.6135375 0.7950000   0   0   0
2.0320261 -4.7433583 -0.4514668   0   0   0
1.9759940 -4.6147875 0.9757972   0   0   0
1.9921114 -4.6546735 -0.2653433   0   0   0
1.9812468 -4.6315224 1.1629970   0   0   0
1.9889837 -4.6518540 -0.0883092   0   0   0
1.9715839 -4.6133864 1.3443061   0   0   0
1.9675753 -4.6218541 0.0876809   0   0   0
1.9745101 -4.6426400 0.2644012   0   0   0
0.9642994 -2.2673447 -0.4789306   0   0   0
1.9852559 -4.6701696 0.4439713   0   0   0
1.1092753 -2.6107547 -0.4492798   0   0   0
1.9623934 -4.6208666 0.6164151   0   0   0
1.3798589 -3.2507438 -0.4336111   0   0   0
1.9627921 -4.6240483 0.7956257   0   0   0
1.9621727 -4.6270793 0.9769421   0   0   0
1.9727337 -4.6542433 -0.2649246   0   0   0
1.9665880 -4.6419987 1.1638968   0   0   0
1.9781918 -4.6716583 -0.0885535   0   0   0
1.9540147 -4.6145622 1.3427532   0   0   0
1.9591984 -4.6471204 0.0880299   0   0   0
1.9582922 -4.6495040 0.2644012   0   0   0
0.9365656 -2.2236546 -0.4690085   0   0   0
1.9581193 -4.6513627 0.4415310   0   0   0
1.0955586 -2.6036863 -0.4474026   0   0   0
1.9508690 -4.6386676 0.6178776   0   0   0
1.3608107 -3.2372407 -0.4311737   0   0   0
1.9527174 -4.6476017 0.7984415   0   0   0
1.9505702 -4.6447610 0.9792318   0   0   0
1.9595673 -4.6684675 -0.2653433   0   0   0
1.9496185 -4.6470381 1.1634469   0   0   0
1.9603260 -4.6748468 -0.0884837   0   0   0
1.9438091 -4.6377282 1.3474119   0   0   0
1.9452763 -4.6594670 0.0881347   0   0   0
1.9436323 -4.6578156 0.2645059   0   0   0
0.9272864 -2.2232864 -0.4682453   0   0   0
1.9526039 -4.6839154 0.4439713   0   0   0
1.0902621 -2.6166118 -0.4489669   0   0   0
1.9369547 -4.6509467 0.6186088   0   0   0
1.3525538 -3.2493017 -0.4321487   0   0   0
1.9319808 -4.6412858 0.7962514   0   0   0
1.9715284 -4.7386237 -0.4490264   0   0   0
1.9388681 -4.6624180 0.9815215   0   0   0
1.9486254 -4.6881893 -0.2660760   0   0   0
1.9356284 -4.6592141 1.1647966   0   0   0
1.9432785 -4.6776284 -0.0884139   0   0   0
1.9321234 -4.6530694 1.3500001   0   0   0
1.9305785 -4.6677400 0.0881696   0   0   0
1.9342260 -4.6811848 0.2654480   0   0   0
0.9240165 -2.2373972 -0.4705350   0   0   0
1.9271196 -4.6686028 0.4418796   0   0   0
1.0845940 -2.6275166 -0.4502184   0   0   0
1.9298491 -4.6775298 0.6212899   0   0   0
1.3342035 -3.2354173 -0.4297113   0   0   0
1.9187790 -4.6553067 0.7975029   0   0   0
1.9226485 -4.6670067 0.9811399   0   0   0
1.9368703 -4.7038595 -0.2665994   0   0   0
1.9223922 -4.6710135 1.1661463   0   0   0
1.9269387 -4.6843832 -0.0884139   0   0   0
1.9136656 -4.6544252 1.3484472   0   0   0
1.9142149 -4.6766353 0.0882045   0   0   0
1.9186301 -4.6897565 0.2655526   0   0   0
0.9221454 -2.2551466 -0.4735879   0   0   0
1.9198567 -4.6974329 0.4439713   0   0   0
1.0674862 -2.6131873 -0.4470897   0   0   0
1.9104410 -4.6790582 0.6205587   0   0   0
1.3148356 -3.2219063 -0.4272739   0   0   0
1.9077419 -4.6747787 0.7996930   0   0   0
1.9033067 -4.6685683 0.9799950   0   0   0
1.9158484 -4.7016789 -0.2660760   0   0   0
1.9089345 -4.6870520 1.1683958   0   0   0
1.9135925 -4.6984889 -0.0885535   0   0   0
1.8981353 -4.6628661 1.3489649   0   0   0
1.9001988 -4.6866636 0.0882743   0   0   0
1.9044975 -4.7019788 0.2658667   0   0   0
0.9201616 -2.2729101 -0.4766409   0   0   0
1.9004585 -4.6967182 0.4432741   0   0   0
1.0573328 -2.6130506 -0.4464640   0   0   0
1.8971470 -4.6908886 0.6212899   0   0   0
1.3115837 -3.2446529 -0.4297113   0   0   0
1.8980721 -4.6978933 0.8025088   0   0   0
1.8922254 -4.6857767 0.9822847   0   0   0
1.8994990 -4.7061541 -0.2659713   0   0   0
1.8933811 -4.6933565 1.1683958   0   0   0
1.9061537 -4.7273953 -0.0889724   0   0   0
1.8876243 -4.6837979 1.3531060   0   0   0
1.8904542 -4.7121558 0.0886233   0   0   0
1.8865862 -4.7048905 0.2656573   0   0   0
0.9136828 -2.2797529 -0.4774041   0   0   0
1.8899794 -4.7181195 0.4446686   0   0   0
1.0484826 -2.6187422 -0.4467768   0   0   0
1.8784663 -4.6941245 0.6208024   0   0   0
1.2972996 -3.2418394 -0.4287363   0   0   0
1.8831290 -4.7081584 0.8031345   0   0   0
1.8750385 -4.6926806 0.9822847   0   0   0
1.8881633 -4.7279230 -0.2668087   0   0   0
1.8768888 -4.7020744 1.1688457   0   0   0
1.8896404 -4.7340202 -0.0889724   0   0   0
1.8741267 -4.6975357 1.3551765   0   0   0
1.8762946 -4.7221156 0.0886931   0   0   0
1.8738359 -4.7207291 0.2661807   0   0   0
0.9057194 -2.2829283 -0.4774041   0   0   0
1.8764362 -4.7320964 0.4453659   0   0   0
1.0456180 -2.6368949 -0.4492798   0   0   0
1.8694723 -4.7169368 0.6229961   0   0   0
1.2772026 -3.2242013 -0.4258115   0   0   0
1.8615927 -4.7018465 0.8009445   0   0   0
1.8674131 -4.7189533 0.9864825   0   0   0
1.8761476 -4.7434447 -0.2673321   0   0   0
1.8634352 -4.7137094 1.1701954   0   0   0
1.8745737 -4.7443070 -0.0890422   0   0   0
1.8562986 -4.7004554 1.3541412   0   0   0
1.8574179 -4.7274241 0.0886582   0   0   0
1.8609013 -4.7387196 0.2668087   0   0   0
0.8901729 -2.2679574 -0.4735879   0   0   0
1.8488929 -4.7129753 0.4429255   0   0   0
1.0318799 -2.6316950 -0.4477154   0   0   0
1.8527955 -4.7277768 0.6234836   0   0   0
1.2691571 -3.2401718 -0.4272739   0   0   0
1.8486698 -4.7196739 0.8028217   0   0   0
1.8449876 -4.7151192 0.9841928   0   0   0
1.8651948 -4.7692143 -0.2683788   0   0   0
1.8481600 -4.7280897 1.1719950   0   0   0
1.8549883 -4.7455584 -0.0889375   0   0   0
1.8383551 -4.7054281 1.3536236   0   0   0
1.8410059 -4.7316939 0.0886233   0   0   0
1.8457959 -4.7489097 0.2670181   0   0   0
0.8822509 -2.2710508 -0.4735879   0   0   0
1.8367571 -4.7305442 0.4439713   0   0   0
1.0131374 -2.6093222 -0.4433353   0   0   0
1.8378256 -4.7357455 0.6237273   0   0   0
1.2584053 -3.2443626 -0.4272739   0   0   0
1.8350399 -4.7334654 0.8040732   0   0   0
1.8328882 -4.7303647 0.9861009   0   0   0
1.8443203 -4.7623360 -0.2676461   0   0   0
1.8373950 -4.7469139 1.1751443   0   0   0
1.8420195 -4.7613296 -0.0891120   0   0   0
1.8288861 -4.7298349 1.3588000   0   0   0
1.8251966 -4.7399575 0.0886582   0   0   0
1.8343420 -4.7661883 0.2676461   0   0   0
1.8260649 -4.7496269 0.4451915   0   0   0
1.0061486 -2.6183746 -0.4442739   0   0   0
1.8248421 -4.7513974 0.6249460   0   0   0
1.2428044 -3.2376161 -0.4258115   0   0   0
1.8264122 -4.7579664 0.8072018   0   0   0
1.8149591 -4.7330676 0.9853376   0   0   0
1.8298297 -4.7743398 -0.2679601   0   0   0
1.8201169 -4.7514789 1.1746944   0   0   0
1.8312275 -4.7804834 -0.0893563   0   0   0
1.8138821 -4.7376778 1.3593176   0   0   0
1.8180170 -4.7684060 0.0890771   0   0   0
1.8169829 -4.7706958 0.2675414   0   0   0
1.8193933 -4.7820424 0.4476319   0   0   0
0.9960554 -2.6180042 -0.4436481   0   0   0
1.8083703 -4.7555672 0.6247023   0   0   0
1.2137249 -3.1934742 -0.4194743   0   0   0
1.8076882 -4.7587728 0.8062632   0   0   0
1.8076158 -4.7610853 0.9899171   0   0   0
1.8196561 -4.7953202 -0.2687975   0   0   0
1.8022773 -4.7520222 1.1733447   0   0   0
1.8152381 -4.7887163 -0.0893912   0   0   0
1.8014401 -4.7548199 1.3624235   0   0   0
1.8005277 -4.7750373 0.0890771   0   0   0
1.8031364 -4.7844850 0.2679601   0   0   0
1.7984778 -4.7771764 0.4465860   0   0   0
0.9906272 -2.6327303 -0.4455254   0   0   0
1.7958195 -4.7751696 0.6264084   0   0   0
1.2075996 -3.2127666 -0.4214242   0   0   0
1.7938461 -4.7724501 0.8075147   0   0   0
1.7873930 -4.7603267 0.9883906   0   0   0
1.8069803 -4.8150468 -0.2695302   0   0   0
1.7875856 -4.7658944 1.1751443   0   0   0
1.7978091 -4.7931512 -0.0893563   0   0   0
1.7861880 -4.7646969 1.3634587   0   0   0
1.7867811 -4.7866021 0.0891818   0   0   0
1.7843310 -4.7851358 0.2676461   0   0   0
1.7824869 -4.7852922 0.4467603   0   0   0
0.9791332 -2.6285964 -0.4442739   0   0   0
1.7848228 -4.7941210 0.6281146   0   0   0
1.1997081 -3.2241953 -0.4223991   0   0   0
1.7799304 -4.7860887 0.8087662   0   0   0
1.7804895 -4.7901509 0.9933516   0   0   0
1.7916987 -4.8228847 -0.2696348   0   0   0
1.7771981 -4.7864110 1.1787435   0   0   0
1.7831541 -4.8050218 -0.0894610   0   0   0
1.7675298 -4.7654690 1.3619058   0   0   0
1.7719952 -4.8006227 0.0893214   0   0   0
1.7786774 -4.8213161 0.2693208   0   0   0
1.7719728 -4.8083105 0.4483291   0   0   0
0.9674441 -2.6266065 -0.4433353   0   0   0
1.7679252 -4.8024933 0.6283583   0   0   0
1.1865119 -3.2248448 -0.4219117   0   0   0
1.7625309 -4.7904188 0.8084533   0   0   0
1.7527618 -4.7690035 0.9876274   0   0   0
1.7705665 -4.8200454 -0.2691115   0   0   0
1.7636728 -4.8038687 1.1814429   0   0   0
1.7724193 -4.8302981 -0.0898101   0   0   0
1.7555428 -4.7843051 1.3655293   0   0   0
1.7559130 -4.8086573 0.0893563   0   0   0
1.7575724 -4.8184212 0.2687975   0   0   0
1.7592723 -4.8256978 0.4493750   0   0   0
0.9562409 -2.6243995 -0.4423967   0   0   0
1.7491128 -4.8030395 0.6276271   0   0   0
1.1745689 -3.2271015 -0.4216679   0   0   0
1.7517143 -4.8154102 0.8115820   0   0   0
1.7461666 -4.8027691 0.9933516   0   0   0
1.7523664 -4.8224421 -0.2689021   0   0   0
1.7448977 -4.8045008 1.1800932   0   0   0
1.7528185 -4.8289368 -0.0896705   0   0   0
1.7386545 -4.7925234 1.3660469   0   0   0
1.7357202 -4.8053535 0.0891818   0   0   0
1.7456534 -4.8354946 0.2694255   0   0   0
1.7552585 -4.8674201 0.4526869   0   0   0
0.9457346 -2.6240047 -0.4417709   0   0   0
1.7370457 -4.8221891 0.6293333   0   0   0
1.1572452 -3.2143722 -0.4194743   0   0   0
1.7348947 -4.8214955 0.8115820   0   0   0
1.7327131 -4.8180722 0.9952597   0   0   0
1.7389001 -4.8379273 -0.2694255   0   0   0
1.7300928 -4.8160643 1.1814429   0   0   0
1.7454119 -4.8613748 -0.0901591   0   0   0
1.7260163 -4.8073537 1.3686351   0   0   0
1.7317186 -4.8471623 0.0898450   0   0   0
1.7287637 -4.8415586 0.2694255   0   0   0
1.7329027 -4.8585046 0.4512924   0   0   0
0.9365694 -2.6272899 -0.4417709   0   0   0
1.7241999 -4.8394429 0.6307957   0   0   0
1.1433543 -3.2109119 -0.4184993   0   0   0
1.7200409 -4.8331052 0.8125206   0   0   0
1.7198320 -4.8351895 0.9975494   0   0   0
1.7246780 -4.8514952 -0.2698442   0   0   0
1.7152283 -4.8275830 1.1827926   0   0   0
1.7224095 -4.8504781 -0.0898450   0   0   0
1.7143967 -4.8279132 1.3727762   0   0   0
1.7141221 -4.8512922 0.0898101   0   0   0
1.7149953 -4.8591627 0.2700535   0   0   0
1.7185839 -4.8720397 0.4519897   0   0   0
0.9306767 -2.6398581 -0.4433353   0   0   0
1.7158726 -4.8697715 0.6339643   0   0   0
1.1347766 -3.2223729 -0.4194743   0   0   0
1.7053166 -4.8425089 0.8131464   0   0   0
1.7003376 -4.8337553 0.9960230   0   0   0
1.7130320 -4.8725596 -0.2706816   0   0   0
1.7035345 -4.8482492 1.1863919   0   0   0
1.7220320 -4.9036293 -0.0907176   0   0   0
1.6934911 -4.8250501 1.3701880   0   0   0
1.6925602 -4.8440316 0.0895657   0   0   0
1.7028232 -4.8761367 0.2706816   0   0   0
1.7022230 -4.8798902 0.4521640   0   0   0
0.9156036 -2.6263032 -0.4405194   0   0   0
1.6955977 -4.8663585 0.6327456   0   0   0
1.1313555 -3.2488105 -0.4223991   0   0   0
1.6934002 -4.8655172 0.8159622   0   0   0
1.6866793 -4.8489325 0.9979311   0   0   0
1.6973248 -4.8822825 -0.2708909   0   0   0
1.6878798 -4.8578477 1.1872917   0   0   0
1.6937529 -4.8774968 -0.0901242   0   0   0
1.6779050 -4.8345822 1.3712233   0   0   0
1.6854363 -4.8782612 0.0900893   0   0   0
1.6844881 -4.8782752 0.2704722   0   0   0
1.6546454 -4.7972778 0.4439713   0   0   0
0.9044992 -2.6238807 -0.4395809   0   0   0
1.6643752 -4.8309574 0.6273834   0   0   0
1.1057899 -3.2114472 -0.4170369   0   0   0
1.6766132 -4.8692382 0.8156493   0   0   0
1.6697431 -4.8547906 0.9979311   0   0   0
1.6789736 -4.8844000 -0.2706816   0   0   0
1.6747114 -4.8747680 1.1899911   0   0   0
1.6890553 -4.9193144 -0.0907874   0   0   0
1.6654082 -4.8532006 1.3748468   0   0   0
1.6671049 -4.8803301 0.0900195   0   0   0
1.6403470 -4.8047395 0.2660760   0   0   0
1.5542911 -4.5578759 0.4213109   0   0   0
0.8946974 -2.6251522 -0.4392680   0   0   0
1.5726154 -4.6168860 0.5988659   0   0   0
1.0958526 -3.2190459 -0.4175244   0   0   0
1.6621525 -4.8825409 0.8169008   0   0   0
1.6591070 -4.8791768 1.0017472   0   0   0
1.6631990 -4.8940130 -0.2708909   0   0   0
1.6570584 -4.8787389 1.1895412   0   0   0
1.6648028 -4.9043510 -0.0904035   0   0   0
1.6521811 -4.8699610 1.3779526   0   0   0
1.6538980 -4.8974871 0.0902289   0   0   0
1.5833275 -4.6912160 0.2594817   0   0   0
1.5262785 -4.5274018 0.4179989   0   0   0
0.8930971 -2.6507231 -0.4430224   0   0   0
1.5501550 -4.6035343 0.5964286   0   0   0
1.0820767 -3.2153259 -0.4165494   0   0   0
1.6432090 -4.8826966 0.8159622   0   0   0
1.4227619 -4.2300935 -0.3904577   0   0   0
1.6420654 -4.8849385 1.0017472   0   0   0
1.6518300 -4.9168283 -0.2718330   0   0   0
1.6437400 -4.8955777 1.1922406   0   0   0
1.6495818 -4.9158198 -0.0905082   0   0   0
1.6384810 -4.8827390 1.3800231   0   0   0
1.6361593 -4.9013337 0.0901940   0   0   0
1.5701028 -4.7061872 0.2600050   0   0   0
1.5041668 -4.5137999 0.4162558   0   0   0
0.8913290 -2.6763144 -0.4467768   0   0   0
1.5359570 -4.6145678 0.5971598   0   0   0
1.0733529 -3.2266179 -0.4175244   0   0   0
1.6286493 -4.8959003 0.8172137   0   0   0
1.3841019 -4.1631898 -0.3838339   0   0   0
1.6287180 -4.9018192 1.0040369   0   0   0
1.6296215 -4.9074004 -0.2709956   0   0   0
1.6284827 -4.9068342 1.1935903   0   0   0
1.6475215 -4.9671003 -0.0913459   0   0   0
1.6157110 -4.8740417 1.3758820   0   0   0
1.5578444 -4.7270856 0.2608424   0   0   0
1.4865317 -4.5133457 0.4157329   0   0   0
1.5192194 -4.6180155 0.5969160   0   0   0
1.0658035 -3.2416596 -0.4189868   0   0   0
1.6201872 -4.9278272 0.8215938   0   0   0
1.6122101 -4.9093399 1.0044186   0   0   0
1.6162185 -4.9244450 -0.2716236   0   0   0
1.6204552 -4.9402639 1.2003388   0   0   0
1.6239438 -4.9538189 -0.0909968   0   0   0
1.6073623 -4.9032373 1.3826113   0   0   0
1.5382417 -4.7229993 0.2603190   0   0   0
1.4652180 -4.5014562 0.4141641   0   0   0
1.5018628 -4.6195148 0.5964286   0   0   0
1.0446666 -3.2151533 -0.4150870   0   0   0
1.6002846 -4.9280960 0.8206552   0   0   0
1.5968816 -4.9205398 1.0055634   0   0   0
1.6027163 -4.9414556 -0.2722516   0   0   0
1.6038015 -4.9477440 1.2007887   0   0   0
1.6066419 -4.9594574 -0.0909968   0   0   0
1.5905704 -4.9127715 1.3836466   0   0   0
1.5011438 -4.6615353 0.2566555   0   0   0
1.4574268 -4.5312004 0.4164301   0   0   0
1.4826927 -4.6152794 0.5952099   0   0   0
1.0310099 -3.2112200 -0.4141120   0   0   0
1.5845375 -4.9352565 0.8209681   0   0   0
1.5814945 -4.9316924 1.0067083   0   0   0
1.5903340 -4.9622358 -0.2730890   0   0   0
1.5799822 -4.9328977 1.1958398   0   0   0
1.5914068 -4.9685667 -0.0910667   0   0   0
1.5778040 -4.9290583 1.3867524   0   0   0
1.4739626 -4.6324885 0.2547714   0   0   0
1.4741865 -4.6387960 0.4258430   0   0   0
1.4715860 -4.6334145 0.5969160   0   0   0
1.0227577 -3.2221895 -0.4150870   0   0   0
1.5714816 -4.9539378 0.8231582   0   0   0
1.5692848 -4.9500099 1.0093796   0   0   0
1.5744732 -4.9693862 -0.2731937   0   0   0
1.5665568 -4.9473991 1.1980893   0   0   0
1.5716403 -4.9664654 -0.0909270   0   0   0
1.5629189 -4.9419036 1.3888230   0   0   0
1.4342272 -4.5654527 0.2507939   0   0   0
1.2173939 -3.8799619 0.3557697   0   0   0
1.4561586 -4.6466078 0.5978910   0   0   0
1.0068181 -3.2147267 -0.4136245   0   0   0
1.5574467 -4.9728599 0.8253482   0   0   0
1.5526111 -4.9634939 1.0109061   0   0   0
1.5595521 -4.9887391 -0.2739264   0   0   0
1.5498732 -4.9608181 1.1998889   0   0   0
1.5570047 -4.9836447 -0.0911365   0   0   0
1.5453712 -4.9494429 1.3893406   0   0   0
1.4099950 -4.5437259 0.2493285   0   0   0
1.1955852 -3.8575446 0.3533294   0   0   0
1.4389799 -4.6457224 0.5971598   0   0   0
0.9996742 -3.2294257 -0.4150870   0   0   0
1.5383273 -4.9726047 0.8244096   0   0   0
1.5355631 -4.9667396 1.0105244   0   0   0
1.5459483 -5.0034246 -0.2744497   0   0   0
1.5385886 -4.9826883 1.2039380   0   0   0
1.5454957 -5.0081571 -0.0914855   0   0   0
1.5292236 -4.9584992 1.3903759   0   0   0
1.3732522 -4.4777260 0.2454556   0   0   0
1.1752009 -3.8367227 0.3510633   0   0   0
1.4221738 -4.6488189 0.5969160   0   0   0
0.9750224 -3.1871649 -0.4092373   0   0   0
1.4409729 -4.7132100 0.7806080   0   0   0
1.5182166 -4.9720695 1.0105244   0   0   0
1.5255589 -4.9992390 -0.2739264   0   0   0
1.5251656 -5.0010765 1.2070874   0   0   0
1.5288795 -5.0132546 -0.0914855   0   0   0
1.5178411 -4.9801744 1.3950347   0   0   0
1.3466138 -4.4461736 0.2434669   0   0   0
1.1531481 -3.8121958 0.3484487   0   0   0
1.4084732 -4.6592099 0.5976473   0   0   0
0.9627430 -3.1867484 -0.4087498   0   0   0
1.4039579 -4.6501328 0.7693447   0   0   0
1.4206228 -4.7082995 0.9559531   0   0   0
1.5107023 -5.0100071 -0.2742404   0   0   0
1.5046371 -4.9930456 1.2039380   0   0   0
1.5026748 -4.9928418 1.3971052   0   0   0
1.3276519 -4.4393659 0.2428388   0   0   0
1.1352724 -3.8009254 0.3470542   0   0   0
1.3936567 -4.6719500 0.5986222   0   0   0
0.9521907 -3.1940604 -0.4092373   0   0   0
1.3860243 -4.6493261 0.7684061   0   0   0
1.3899112 -4.6683157 0.9467942   0   0   0
1.3243001 -4.4507869 -0.2433622   0   0   0
1.4924363 -5.0190738 1.2088870   0   0   0
1.4955533 -5.0295562 -0.0915902   0   0   0
1.4879889 -5.0073158 1.3996934   0   0   0
1.2835526 -4.3415472 0.0790245   0   0   0
1.3081885 -4.4305647 0.2421061   0   0   0
1.1135448 -3.7761996 0.3444395   0   0   0
1.3792786 -4.6803541 0.5991097   0   0   0
0.9427152 -3.2010088 -0.4097247   0   0   0
1.3681135 -4.6484508 0.7674675   0   0   0
1.3661131 -4.6446470 0.9410700   0   0   0
1.4706201 -5.0031858 -0.2732984   0   0   0
1.4757843 -5.0239953 1.2088870   0   0   0
1.4875631 -5.0673644 -0.0921836   0   0   0
1.4656066 -4.9957958 1.3950347   0   0   0
1.2375931 -4.2487496 0.0772444   0   0   0
1.2939579 -4.4451434 0.2426295   0   0   0
1.0934751 -3.7613156 0.3426964   0   0   0
1.3649073 -4.7011041 0.6010596   0   0   0
0.9265391 -3.1933286 -0.4082623   0   0   0
1.3469520 -4.6422869 0.7655903   0   0   0
1.3419932 -4.6312367 0.9372538   0   0   0
1.4655239 -5.0608468 -0.2761245   0   0   0
1.4593969 -5.0429825 1.2120363   0   0   0
1.4675390 -5.0711180 -0.0921487   0   0   0
1.4544639 -5.0292235 1.4027992   0   0   0
1.2196268 -4.2393780 0.0770000   0   0   0
1.2773305 -4.4457939 0.2424202   0   0   0
1.0797895 -3.7631946 0.3425221   0   0   0
0.7594777 -2.6468699 -0.4361393   0   0   0
1.3487632 -4.7036962 0.6008159   0   0   0
0.9132103 -3.1868421 -0.4070436   0   0   0
1.3301953 -4.6450613 0.7652774   0   0   0
1.3287888 -4.6432114 0.9387803   0   0   0
1.4476352 -5.0618383 -0.2759152   0   0   0
1.4432012 -5.0496681 1.2124862   0   0   0
1.4514761 -5.0819782 -0.0922534   0   0   0
1.4353091 -5.0286969 1.4012463   0   0   0
1.2062638 -4.2515147 0.0771396   0   0   0
1.2618040 -4.4502255 0.2424202   0   0   0
1.0644756 -3.7592727 0.3418248   0   0   0
0.7433171 -2.6268268 -0.4323849   0   0   0
1.3331347 -4.7143387 0.6015471   0   0   0
0.9042230 -3.1997191 -0.4082623   0   0   0
1.3128986 -4.6458744 0.7646517   0   0   0
1.3122948 -4.6499399 0.9391619   0   0   0
1.4258200 -5.0555765 -0.2752871   0   0   0
1.4257408 -5.0586751 1.2133860   0   0   0
1.4326429 -5.0831644 -0.0921836   0   0   0
1.4250792 -5.0597095 1.4084932   0   0   0
1.1921586 -4.2554914 0.0771396   0   0   0
1.2559481 -4.4892242 0.2443042   0   0   0
1.0481301 -3.7514521 0.3407790   0   0   0
0.7409807 -2.6521075 -0.4361393   0   0   0
1.3206971 -4.7302054 0.6030095   0   0   0
0.8872054 -3.1797553 -0.4053374   0   0   0
1.3009179 -4.6656514 0.7671546   0   0   0
1.3753861 -4.9360563 0.9960230   0   0   0
1.2590347 -4.5215402 -0.2459790   0   0   0
1.4120923 -5.0746396 1.2160854   0   0   0
1.2338104 -4.4369456 -0.0803858   0   0   0
1.4089605 -5.0702371 1.4100462   0   0   0
1.1778297 -4.2615543 0.0771745   0   0   0
1.2506255 -4.5280176 0.2461883   0   0   0
1.0309162 -3.7376212 0.3392101   0   0   0
0.7185960 -2.6070688 -0.4283176   0   0   0
1.3073404 -4.7462695 0.6044719   0   0   0
0.8845297 -3.2134555 -0.4092373   0   0   0
1.3798022 -5.0127575 0.8234710   0   0   0
1.4013378 -5.0979493 1.0276972   0   0   0
1.2443020 -4.5297594 -0.2461883   0   0   0
1.3969492 -5.0889340 1.2183349   0   0   0
1.2050897 -4.3930141 -0.0795132   0   0   0
1.3916282 -5.0730185 1.4095285   0   0   0
1.1618949 -4.2617812 0.0771047   0   0   0
1.2413664 -4.5595505 0.2476537   0   0   0
1.0126326 -3.7219719 0.3374670   0   0   0
0.7058634 -2.5962181 -0.4261275   0   0   0
1.2907649 -4.7508041 0.6044719   0   0   0
0.8795489 -3.2395123 -0.4121621   0   0   0
1.3852141 -5.1054778 0.8378630   0   0   0
1.3814791 -5.0952304 1.0261708   0   0   0
1.2290049 -4.5360029 -0.2462930   0   0   0
1.3822328 -5.1050653 1.2210343   0   0   0
1.1887033 -4.3933333 -0.0794434   0   0   0
1.3755465 -5.0874094 1.4121167   0   0   0
1.1457480 -4.2640799 0.0770698   0   0   0
1.2280328 -4.5735006 0.2481771   0   0   0
0.9984681 -3.7237340 0.3372927   0   0   0
0.6983881 -2.6064200 -0.4273790   0   0   0
1.2718033 -4.7497505 0.6037407   0   0   0
0.8512501 -3.1813501 -0.4043625   0   0   0
1.3726155 -5.1334206 0.8416174   0   0   0
1.1013737 -4.1190080 -0.3730266   0   0   0
1.3617812 -5.0964662 1.0254075   0   0   0
1.2087646 -4.5269694 -0.2455603   0   0   0
1.3655221 -5.1176286 1.2228339   0   0   0
1.1746538 -4.4053893 -0.0795830   0   0   0
1.3612638 -5.1052464 1.4157402   0   0   0
1.1380269 -4.2951153 0.0775585   0   0   0
1.2120608 -4.5777594 0.2481771   0   0   0
0.9854638 -3.7271966 0.3372927   0   0   0
0.6867628 -2.5992928 -0.4258146   0   0   0
1.2567361 -4.7599189 0.6044719   0   0   0
0.8452040 -3.2034962 -0.4067999   0   0   0
1.3541845 -5.1362705 0.8413046   0   0   0
1.0869889 -4.1228275 -0.3730266   0   0   0
1.3469840 -5.1125794 1.0276972   0   0   0
1.2005828 -4.5601328 -0.2471304   0   0   0
1.3456666 -5.1148256 1.2210343   0   0   0
1.1597774 -4.4113968 -0.0796179   0   0   0
1.3468733 -5.1230455 1.4193636   0   0   0
1.1548682 -4.4209522 0.0797575   0   0   0
1.1962826 -4.5860362 0.2483865   0   0   0
0.9709398 -3.7248299 0.3367698   0   0   0
0.6806730 -2.6131437 -0.4276918   0   0   0
1.2451137 -4.7834875 0.6069093   0   0   0
0.8310183 -3.1949000 -0.4053374   0   0   0
1.3361501 -5.1369094 0.8406788   0   0   0
1.0725909 -4.1265966 -0.3730266   0   0   0
1.3335715 -5.1343520 1.0311318   0   0   0
1.1896752 -4.5836279 -0.2481771   0   0   0
1.3317183 -5.1345823 1.2246335   0   0   0
1.1478836 -4.4289684 -0.0798622   0   0   0
1.3271186 -5.1242073 1.4183284   0   0   0
1.1558848 -4.4888618 0.0809094   0   0   0
1.1860452 -4.6093205 0.2494332   0   0   0
0.9534694 -3.7108291 0.3352010   0   0   0
0.6685997 -2.6040239 -0.4258146   0   0   0
1.2333420 -4.8070328 0.6093467   0   0   0
0.8247910 -3.2170103 -0.4077748   0   0   0
1.3202549 -5.1532536 0.8425560   0   0   0
1.3171019 -5.1446815 1.0322767   0   0   0
1.3236561 -5.1740408 -0.2798927   0   0   0
1.3195790 -5.1618558 1.2300324   0   0   0
1.1348913 -4.4426357 -0.0800367   0   0   0
1.3106572 -5.1344241 1.4198813   0   0   0
1.1411925 -4.4967457 0.0809792   0   0   0
1.1714214 -4.6192405 0.2497472   0   0   0
0.9390431 -3.7083404 0.3346781   0   0   0
0.6595059 -2.6063419 -0.4258146   0   0   0
1.2223943 -4.8344029 0.6122716   0   0   0
0.7989679 -3.1621315 -0.4004627   0   0   0
1.3070301 -5.1729249 0.8450590   0   0   0
1.0437560 -4.1339841 -0.3730266   0   0   0
1.3010567 -5.1568621 1.0338031   0   0   0
1.2963105 -5.1418332 -0.2779039   0   0   0
1.3029809 -5.1720997 1.2313821   0   0   0
1.1315809 -4.4950500 -0.0809094   0   0   0
1.2936693 -5.1427148 1.4209166   0   0   0
1.1250039 -4.4987619 0.0809443   0   0   0
0.9236811 -3.7019301 0.3338065   0   0   0
0.6518377 -2.6143782 -0.4267532   0   0   0
1.2050317 -4.8367142 0.6120278   0   0   0
0.7955982 -3.1957219 -0.4043625   0   0   0
1.2903969 -5.1832063 0.8459976   0   0   0
1.2849425 -5.1689933 1.0353296   0   0   0
1.1290925 -4.5454374 -0.2454556   0   0   0
1.2849190 -5.1766164 1.2313821   0   0   0
1.1385092 -4.5901942 -0.0825499   0   0   0
1.2812868 -5.1697007 1.4271282   0   0   0
1.0007080 -4.0619093 0.0730209   0   0   0
0.9983032 -4.0551956 0.2188690   0   0   0
0.9117045 -3.7090014 0.3341551   0   0   0
0.6332840 -2.5782705 -0.4204958   0   0   0
0.7797098 -3.1792000 -0.4019251   0   0   0
1.2737078 -5.1934346 0.8469362   0   0   0
1.0148701 -4.1411701 -0.3730266   0   0   0
1.2720282 -5.1944231 1.0395274   0   0   0
1.1113202 -4.5415909 -0.2450370   0   0   0
1.2682300 -5.1867490 1.2327318   0   0   0
1.2641364 -5.1739212 1.4271282   0   0   0
0.9884095 -4.0731509 0.0731605   0   0   0
1.0989820 -4.5322624 0.2444089   0   0   0
0.8964080 -3.7024790 0.3332836   0   0   0
0.6326412 -2.6150251 -0.4261275   0   0   0
0.7686076 -3.1819024 -0.4019251   0   0   0
1.2564993 -5.2016894 0.8475619   0   0   0
1.2566504 -5.2102828 1.0418171   0   0   0
1.2542233 -5.2081955 1.2367809   0   0   0
1.2492293 -5.1954245 1.4317870   0   0   0
1.0838743 -4.5355801 0.0813980   0   0   0
1.0874620 -4.5576299 0.2455603   0   0   0
0.8802440 -3.6920190 0.3320634   0   0   0
0.6216780 -2.6095312 -0.4248760   0   0   0
0.7574960 -3.1845659 -0.4019251   0   0   0
1.2406199 -5.2156525 0.8491263   0   0   0
0.9564489 -4.0240973 -0.3618706   0   0   0
1.2380018 -5.2127275 1.0414355   0   0   0
1.0735920 -4.5239759 -0.2436762   0   0   0
1.2364853 -5.2144380 1.2372308   0   0   0
1.0806972 -4.5610025 -0.0818169   0   0   0
1.2288760 -5.1863799 1.4281635   0   0   0
1.0657456 -4.5296032 0.0812235   0   0   0
0.9386307 -3.9955981 0.2151008   0   0   0
0.6080545 -2.5924535 -0.4217473   0   0   0
0.7463752 -3.1871907 -0.4019251   0   0   0
1.2232955 -5.2278582 0.8503778   0   0   0
0.9487516 -4.0545712 -0.3643110   0   0   0
1.2193514 -5.2151055 1.0410539   0   0   0
1.0677901 -4.5704834 -0.2459790   0   0   0
1.2222631 -5.2358019 1.2412799   0   0   0
1.0679495 -4.5783789 -0.0820612   0   0   0
1.2155593 -5.2153077 1.4348928   0   0   0
0.9188632 -3.9673951 0.2134260   0   0   0
0.6030118 -2.6098530 -0.4242503   0   0   0
0.7375868 -3.1973854 -0.4029001   0   0   0
1.2117500 -5.2528486 0.8538193   0   0   0
0.9308258 -4.0382803 -0.3625679   0   0   0
1.2051353 -5.2325125 1.0437252   0   0   0
1.2057673 -5.2436246 1.2421797   0   0   0
1.2004668 -5.2247491 1.4364457   0   0   0
1.0014104 -4.3864575 0.0785358   0   0   0
1.0483721 -4.5995616 0.2472351   0   0   0
0.8828518 -3.8796179 0.3481000   0   0   0
0.6075034 -2.6696223 -0.4336363   0   0   0
0.7296186 -3.2114283 -0.4043625   0   0   0
1.1955933 -5.2666782 0.8553837   0   0   0
0.9114351 -4.0181885 -0.3604761   0   0   0
1.1886456 -5.2403093 1.0444884   0   0   0
0.9014816 -3.9775246 -0.2137400   0   0   0
1.1909546 -5.2589979 1.2448791   0   0   0
1.1860559 -5.2458663 1.4411044   0   0   0
1.0052189 -4.4860561 0.0802462   0   0   0
1.0337580 -4.6171962 0.2479678   0   0   0
0.8679487 -3.8829792 0.3481000   0   0   0
0.5898927 -2.6411934 -0.4286304   0   0   0
0.7080809 -3.1755811 -0.3994877   0   0   0
1.1749321 -5.2693021 0.8550708   0   0   0
0.8951332 -4.0177691 -0.3601275   0   0   0
1.1718661 -5.2642021 1.0483046   0   0   0
1.0051942 -4.5192048 -0.2426295   0   0   0
1.1677202 -5.2542247 1.2426296   0   0   0
1.0143073 -4.5639344 -0.0816075   0   0   0
1.1650670 -5.2466099 1.4400692   0   0   0
0.9881832 -4.4796011 0.0800716   0   0   0
1.0253668 -4.6558858 0.2498519   0   0   0
0.8543893 -3.8859852 0.3481000   0   0   0
0.5802826 -2.6392764 -0.4280047   0   0   0
0.7000999 -3.1895453 -0.4009501   0   0   0
1.1594938 -5.2868779 0.8572609   0   0   0
0.8764118 -3.9994609 -0.3582101   0   0   0
1.1573446 -5.2814834 1.0509759   0   0   0
0.9987460 -4.5615341 -0.2447229   0   0   0
1.1557043 -5.2828164 1.2484784   0   0   0
1.1567940 -5.2922217 -0.0945571   0   0   0
1.1463336 -5.2487574 1.4395515   0   0   0
0.9666747 -4.4597412 0.0796528   0   0   0
1.1465028 -5.2938384 0.2838702   0   0   0
0.8408194 -3.8889439 0.3481000   0   0   0
0.5681026 -2.6298005 -0.4261275   0   0   0
0.6864491 -3.1803272 -0.3994877   0   0   0
1.1443636 -5.3063409 0.8597638   0   0   0
0.8578293 -3.9810713 -0.3562927   0   0   0
1.1355000 -5.2741741 1.0486862   0   0   0
0.9757200 -4.5358751 -0.2431529   0   0   0
1.1392005 -5.3003534 1.2516277   0   0   0
1.1433560 -5.3196880 -0.0949760   0   0   0
1.1312499 -5.2678372 1.4436926   0   0   0
0.9506290 -4.4570552 0.0795481   0   0   0
1.1342559 -5.3271102 0.2854403   0   0   0
0.5593787 -2.6316700 -0.4261275   0   0   0
0.6728713 -3.1710528 -0.3980253   0   0   0
1.1287019 -5.3238302 0.8619539   0   0   0
0.8472306 -3.9996345 -0.3576872   0   0   0
1.1232929 -5.3028789 1.0536473   0   0   0
0.9581919 -4.5273619 -0.2425248   0   0   0
1.1236334 -5.3136349 1.2538772   0   0   0
1.1268467 -5.3334292 -0.0951505   0   0   0
1.1152489 -5.2830951 1.4467985   0   0   0
0.9334668 -4.4565950 0.0794783   0   0   0
1.1160630 -5.3329920 0.2855450   0   0   0
0.8486887 -4.0624437 0.3630908   0   0   0
0.5545728 -2.6569069 -0.4298819   0   0   0
0.6604344 -3.1696110 -0.3975378   0   0   0
1.1109172 -5.3316053 0.8625796   0   0   0
0.8283912 -3.9791607 -0.3555954   0   0   0
1.1050487 -5.3127267 1.0547921   0   0   0
1.1021695 -5.3081773 1.2516277   0   0   0
1.1102554 -5.3471198 -0.0953250   0   0   0
1.1015097 -5.3096548 1.4530101   0   0   0
0.9198934 -4.4655417 0.0795830   0   0   0
1.0966360 -5.3329426 0.2853356   0   0   0
0.8457205 -4.1200289 0.3679715   0   0   0
0.5537033 -2.6974320 -0.4361393   0   0   0
0.6562956 -3.2028987 -0.4014376   0   0   0
1.0919035 -5.3335154 0.8622668   0   0   0
0.8144963 -3.9820281 -0.3555954   0   0   0
1.0929330 -5.3432900 1.0601348   0   0   0
1.0933190 -5.3499330 -0.2861730   0   0   0
1.0880696 -5.3289872 1.2556768   0   0   0
1.0899849 -5.3431254 -0.0951854   0   0   0
1.0845121 -5.3210392 1.4550807   0   0   0
0.9039036 -4.4667655 0.0795481   0   0   0
1.0840907 -5.3619993 0.2866964   0   0   0
0.8332358 -4.1286698 0.3684945   0   0   0
0.5442841 -2.6993483 -0.4361393   0   0   0
0.6427613 -3.1934937 -0.3999752   0   0   0
1.0781086 -5.3564724 0.8653955   0   0   0
0.8012869 -3.9847072 -0.3555954   0   0   0
1.0711811 -5.3316741 1.0570818   0   0   0
1.0777821 -5.3693824 -0.2870104   0   0   0
1.0717604 -5.3442170 1.2583762   0   0   0
1.0797313 -5.3839630 -0.0958486   0   0   0
1.0664814 -5.3227121 1.4545630   0   0   0
0.8894764 -4.4716997 0.0795830   0   0   0
1.0669231 -5.3735869 0.2871151   0   0   0
0.8176570 -4.1256900 0.3679715   0   0   0
0.5353297 -2.7011384 -0.4361393   0   0   0
0.6313973 -3.1917129 -0.3994877   0   0   0
1.0620856 -5.3737683 0.8675855   0   0   0
1.0572980 -5.3544576 1.0608980   0   0   0
1.0595841 -5.3709674 -0.2869057   0   0   0
1.0559167 -5.3573014 1.2606257   0   0   0
1.0655674 -5.4112433 -0.0962675   0   0   0
1.0508785 -5.3415665 1.4587041   0   0   0
0.8734637 -4.4768925 0.0796179   0   0   0
1.0500699 -5.3870802 0.2876384   0   0   0
0.8059142 -4.1422091 0.3691917   0   0   0
0.6136453 -3.1628256 -0.3955879   0   0   0
1.0452024 -5.3871390 0.8691499   0   0   0
0.7734491 -3.9902041 -0.3555954   0   0   0
1.0384123 -5.3621517 1.0616613   0   0   0
1.0392328 -5.3764422 1.2642249   0   0   0
1.0451542 -5.4070765 -0.0961279   0   0   0
1.0351569 -5.3603767 1.4628452   0   0   0
1.0347774 -5.3988918 0.0959533   0   0   0
1.0297579 -5.3828661 0.2872197   0   0   0
0.7970554 -4.1743525 0.3718064   0   0   0
0.6016671 -3.1570431 -0.3946129   0   0   0
1.0289777 -5.4043382 0.8713400   0   0   0
0.7356880 -3.8676128 -0.3444395   0   0   0
1.0231931 -5.3790665 1.0643326   0   0   0
1.0203077 -5.3741152 1.2628752   0   0   0
1.0259009 -5.4087272 -0.0960929   0   0   0
1.0185974 -5.3753458 1.4659511   0   0   0
1.0190439 -5.4242666 0.0963373   0   0   0
1.0135409 -5.4001687 0.2879524   0   0   0
0.7810120 -4.1692760 0.3711091   0   0   0
0.5906433 -3.1591241 -0.3946129   0   0   0
1.0079306 -5.3962463 0.8694628   0   0   0
0.7455736 -3.9955065 -0.3555954   0   0   0
1.0049102 -5.3905005 1.0658590   0   0   0
1.0073087 -5.4033664 -0.2880571   0   0   0
1.0040399 -5.3910546 1.2660245   0   0   0
1.0062831 -5.4083434 -0.0960231   0   0   0
1.0005339 -5.3826673 1.4669863   0   0   0
1.0043151 -5.4453148 0.0966514   0   0   0
0.9996088 -5.4251062 0.2891038   0   0   0
0.7664612 -4.1679239 0.3707605   0   0   0
0.9951301 -5.4220374 0.6768623   0   0   0
0.5844642 -3.1844951 -0.3975378   0   0   0
0.9914554 -5.4073310 0.8707142   0   0   0
0.7323199 -3.9979569 -0.3555954   0   0   0
0.9880893 -5.3995969 1.0670039   0   0   0
0.9893849 -5.4066770 -0.2880571   0   0   0
0.9903623 -5.4173581 1.2714234   0   0   0
0.9912170 -5.4273878 -0.0963024   0   0   0
0.9833723 -5.3897565 1.4680216   0   0   0
0.9832838 -5.4430557 0.0965467   0   0   0
0.9829105 -5.4464231 0.2900459   0   0   0
0.7554178 -4.1942352 0.3728523   0   0   0
0.9780601 -5.4412786 0.6788122   0   0   0
0.5777052 -3.2139688 -0.4009501   0   0   0
0.9754704 -5.4323156 0.8741558   0   0   0
0.7176618 -4.0006141 -0.3555954   0   0   0
0.9696774 -5.4109120 1.0685304   0   0   0
0.9672097 -5.4025721 -0.2876384   0   0   0
0.9735909 -5.4382158 1.2754725   0   0   0
0.9734303 -5.4427951 -0.0965118   0   0   0
0.9649703 -5.4009315 1.4700922   0   0   0
0.9669734 -5.4561316 0.0967212   0   0   0
0.9648441 -5.4496526 0.2900459   0   0   0
0.7463583 -4.2241852 0.3752926   0   0   0
0.9600108 -5.4444920 0.6788122   0   0   0
0.9608776 -5.4549748 0.8772845   0   0   0
0.9537683 -5.4256994 1.0708201   0   0   0
0.9548776 -5.4375757 1.2745727   0   0   0
0.9577947 -5.4597805 -0.0967561   0   0   0
0.9517235 -5.4307417 1.4773391   0   0   0
0.9474507 -5.4737620 0.0969656   0   0   0
0.9436407 -5.4574179 0.2902552   0   0   0
0.7443017 -4.3135358 0.3829623   0   0   0
0.9388213 -5.4522145 0.6792997   0   0   0
0.4416199 -2.5647123 -0.3195414   0   0   0
0.9396420 -5.4626816 0.8779102   0   0   0
0.4555037 -2.6508754 -0.2353205   0   0   0
0.9343054 -5.4430291 1.0734914   0   0   0
0.9337008 -5.4452064 1.2754725   0   0   0
0.9299155 -5.4345184 1.4773391   0   0   0
0.9282903 -5.4709592 0.0968609   0   0   0
0.9268731 -5.4683938 0.2906739   0   0   0
0.7299934 -4.3159802 0.3829623   0   0   0
0.9247003 -5.4787866 0.6822246   0   0   0
0.5315623 -3.1494704 -0.3921755   0   0   0
0.9221787 -5.4696633 0.8785360   0   0   0
0.4394309 -2.6091475 -0.2314856   0   0   0
0.9217878 -5.4790102 1.0799789   0   0   0
0.4317643 -2.5663620 -0.1363875   0   0   0
0.9188685 -5.4674906 1.2799715   0   0   0
0.9203956 -5.4824316 -0.0970354   0   0   0
0.9128474 -5.4432880 1.4788920   0   0   0
0.9141232 -5.5098340 0.0974891   0   0   0
0.9097632 -5.4894877 0.2916160   0   0   0
0.7141697 -4.3186268 0.3829623   0   0   0
0.9075221 -5.4997665 0.6844182   0   0   0
0.5238936 -3.1749008 -0.3951004   0   0   0
0.9034103 -5.4808029 0.8797874   0   0   0
0.6603346 -4.0104750 -0.3555954   0   0   0
0.9013814 -5.4804147 1.0795973   0   0   0
0.4359692 -2.6507001 -0.1407837   0   0   0
0.9019823 -5.4900513 1.2844705   0   0   0
0.4232684 -2.5791004 -0.0456206   0   0   0
0.8941407 -5.4542228 1.4809626   0   0   0
0.4182543 -2.5738406 0.0455159   0   0   0
0.8937945 -5.5062746 0.2923486   0   0   0
0.8886458 -5.4988264 0.6839308   0   0   0
0.5158960 -3.1922980 -0.3970503   0   0   0
0.8874340 -5.4974195 0.8819775   0   0   0
0.6470318 -4.0126427 -0.3555954   0   0   0
0.8832028 -5.4833736 1.0795973   0   0   0
0.8819850 -5.4758129 -0.2906739   0   0   0
0.8853194 -5.5026322 1.2867200   0   0   0
0.8868585 -5.5183389 -0.0975590   0   0   0
0.8775800 -5.4666950 1.4835508   0   0   0
0.4261326 -2.5684940 0.0454461   0   0   0
0.4091315 -2.5773313 0.0455508   0   0   0
0.8748581 -5.5174040 0.2927673   0   0   0
0.8712713 -5.5196938 0.6861244   0   0   0
0.5060492 -3.2059323 -0.3985128   0   0   0
0.8703555 -5.5201479 0.8851062   0   0   0
0.6323204 -4.0149873 -0.3555954   0   0   0
0.8655400 -5.5020891 1.0826502   0   0   0
0.8588054 -5.4592788 -0.2896272   0   0   0
0.8672628 -5.5193159 1.2898693   0   0   0
0.8694173 -5.5393319 -0.0978731   0   0   0
0.8611282 -5.4927773 1.4897624   0   0   0
0.4008894 -2.5806498 0.0455857   0   0   0
0.8568632 -5.5222484 0.2928720   0   0   0
0.6806348 -4.3966335 0.3892375   0   0   0
0.8529625 -5.5225527 0.6861244   0   0   0
0.8532500 -5.5308128 0.8863577   0   0   0
0.8487829 -5.5146312 1.0845583   0   0   0
0.8443430 -5.4857849 -0.2908832   0   0   0
0.8471787 -5.5106049 1.2871699   0   0   0
0.8507400 -5.5402080 -0.0978382   0   0   0
0.8434945 -5.4994217 1.4907977   0   0   0
0.3917287 -2.5780110 0.0455159   0   0   0
0.8400445 -5.5349327 0.2933954   0   0   0
0.6588927 -4.3515880 0.3850541   0   0   0
0.8373129 -5.5430163 0.6883181   0   0   0
