ply
format ascii 1.0
element vertex 1099
property float x
property float y
property float z
property uchar red
property uchar green
property uchar blue
end_header
-4.2008319 2.9886875 1.0021288   0   0   0
-11.9455156 8.5049353 -0.7685012   0   0   0
-4.1518326 2.9581945 1.1769439   0   0   0
-11.9344578 8.5064821 -0.2558174   0   0   0
-4.1583519 2.9661238 1.3686351   0   0   0
-2.6580176 1.9057620 -0.8763613   0   0   0
-11.9157991 8.5497618 0.2559919   0   0   0
-2.6596668 1.9090536 -0.7558355   0   0   0
-11.9406061 8.5770359 0.7704899   0   0   0
-2.6621914 1.9136832 -0.6373020   0   0   0
-3.2516258 2.3399739 -0.6344982   0   0   0
-7.2616973 5.2295985 1.0987740   0   0   0
-9.9215689 7.1477671 -1.5014303   0   0   0
-4.9673104 3.5812194 0.9698937   0   0   0
-4.1931267 3.0264039 1.0051818   0   0   0
-11.8873482 8.5860481 -0.7685012   0   0   0
-4.1442356 2.9955192 1.1805432   0   0   0
-11.8876228 8.5957222 -0.2560617   0   0   0
-4.1411963 2.9966247 1.3696704   0   0   0
-2.6477726 1.9265450 -0.8773966   0   0   0
-11.8542032 8.6315641 0.2559570   0   0   0
-2.6368234 1.9206907 -0.7531362   0   0   0
-11.8820505 8.6613646 0.7705946   0   0   0
-2.6551108 1.9368501 -0.6388285   0   0   0
-9.5277700 6.9528651 1.0319240   0   0   0
-3.3899517 2.4756224 -0.6648465   0   0   0
-7.2041759 5.2649403 1.0956054   0   0   0
-9.8521967 7.2027993 -1.4985055   0   0   0
-4.9437823 3.6169767 0.9702066   0   0   0
-9.6100760 7.0360885 -1.0420340   0   0   0
-4.1623931 3.0486431 1.0028921   0   0   0
-11.8303385 8.6711884 -0.7687106   0   0   0
-4.1263647 3.0266833 1.1814430   0   0   0
-11.8386097 8.6867838 -0.2563061   0   0   0
-4.1248465 3.0288928 1.3712233   0   0   0
-2.6358125 1.9461304 -0.8779142   0   0   0
-11.8097382 8.7259941 0.2563061   0   0   0
-2.6280515 1.9425272 -0.7544858   0   0   0
-11.8196878 8.7429171 0.7704899   0   0   0
-2.6320567 1.9483305 -0.6365388   0   0   0
-3.3963928 2.5168698 -0.6695395   0   0   0
-7.1624613 5.3115587 1.0948741   0   0   0
-9.8080492 7.2761354 -1.4994804   0   0   0
-4.9104805 3.6455150 0.9686422   0   0   0
-9.4615631 7.0293398 -1.0312268   0   0   0
-4.1394329 3.0764565 1.0025104   0   0   0
-11.7759247 8.7583361 -0.7691292   0   0   0
-4.1020074 3.0530896 1.1805432   0   0   0
-11.7776766 8.7692204 -0.2563061   0   0   0
-4.1144443 3.0656953 1.3748468   0   0   0
-2.6237078 1.9656426 -0.8784319   0   0   0
-11.7581320 8.8154259 0.2565155   0   0   0
-2.6191032 1.9643347 -0.7558355   0   0   0
-11.7679482 8.8324137 0.7711180   0   0   0
-2.6183908 1.9666581 -0.6365388   0   0   0
-9.3963137 7.0600824 1.0282634   0   0   0
-3.3755813 2.5381453 -0.6689138   0   0   0
-7.1283774 5.3638196 1.0953617   0   0   0
-8.9862223 6.7642303 -1.3810234   0   0   0
-4.8785992 3.6749532 0.9673907   0   0   0
-9.3995314 7.0856271 -1.0298322   0   0   0
-4.1147194 3.1029160 1.0017473   0   0   0
-11.7208710 8.8451452 -0.7695479   0   0   0
-4.0805931 3.0816524 1.1805432   0   0   0
-11.7225523 8.8560514 -0.2564456   0   0   0
-4.0867777 3.0896845 1.3727763   0   0   0
-2.5979621 1.9741055 -0.8742907   0   0   0
-11.6994476 8.8964663 0.2565504   0   0   0
-2.6134269 1.9880159 -0.7580851   0   0   0
-11.7155018 8.9183598 0.7716413   0   0   0
-2.6080670 1.9868146 -0.6373020   0   0   0
-9.3337784 7.1130080 1.0266947   0   0   0
-3.1838753 2.4280987 -0.6341853   0   0   0
-7.0853901 5.4073987 1.0943867   0   0   0
-4.0345054 3.0801516 -0.6232398   0   0   0
-4.0281835 3.0797787 -0.4436227   0   0   0
-4.0810280 3.1213102 0.9986943   0   0   0
-4.0703521 3.1176512 1.1836925   0   0   0
-4.0206676 3.0807095 -0.0884139   0   0   0
-4.0671854 3.1186061 1.3732939   0   0   0
-2.5856471 1.9933739 -0.8748084   0   0   0
-3.9945967 3.0818107 0.0880648   0   0   0
-3.9770529 3.0715988 0.2633545   0   0   0
-2.5972397 2.0073750 -0.6380653   0   0   0
-3.9846656 3.0808108 0.4406594   0   0   0
-3.1652842 2.4490581 -0.6338724   0   0   0
-3.9883327 3.0880971 0.6193400   0   0   0
-3.8041763 2.9465702 -0.5908226   0   0   0
-3.9781320 3.0835321 0.7971900   0   0   0
-3.8113718 2.9564030 -0.4220081   0   0   0
-4.0017481 3.1051929 0.9845744   0   0   0
-3.8301775 2.9742036 -0.2541434   0   0   0
-4.0346389 3.1352298 1.1796433   0   0   0
-3.8238173 2.9724755 -0.0845395   0   0   0
-4.0331159 3.1374347 1.3691528   0   0   0
-2.2874227 1.7884166 -0.7780101   0   0   0
-3.7262645 2.9154685 0.0825848   0   0   0
-2.3463738 1.8364878 -0.6879003   0   0   0
-3.7374954 2.9274118 0.2488051   0   0   0
-2.5757902 2.0189517 -0.6361572   0   0   0
-3.7299888 2.9246848 0.4146870   0   0   0
-3.1625273 2.4815214 -0.6366883   0   0   0
-3.7377119 2.9349566 0.5835104   0   0   0
-3.5467491 2.7860081 -0.5537743   0   0   0
-3.7365248 2.9371884 0.7527627   0   0   0
-3.5687954 2.8073566 -0.3972559   0   0   0
-3.7321227 2.9368908 0.9231339   0   0   0
-3.5634911 2.8062055 -0.2377099   0   0   0
-3.7484128 2.9539497 1.1018102   0   0   0
-3.5804999 2.8226385 -0.0795830   0   0   0
-3.7553449 2.9626012 1.2816719   0   0   0
-2.1083899 1.6722878 -0.7210699   0   0   0
-3.4834082 2.7648771 0.0776283   0   0   0
-2.2632923 1.7970815 -0.6672049   0   0   0
-3.4370611 2.7310247 0.2300689   0   0   0
-2.3634019 1.8792613 -0.5869285   0   0   0
-3.1482172 2.5059998 -0.6373140   0   0   0
-3.4423056 2.7420595 0.5403687   0   0   0
-3.2958949 2.6263723 -0.5174572   0   0   0
-3.4765399 2.7723062 0.7042680   0   0   0
-3.3295288 2.6569767 -0.3726780   0   0   0
-3.4921203 2.7877231 0.8685625   0   0   0
-3.3315902 2.6614780 -0.2234745   0   0   0
-3.4902468 2.7902191 1.0316255   0   0   0
-3.3264499 2.6602261 -0.0743473   0   0   0
-3.5068161 2.8064761 1.2035086   0   0   0
-2.0722904 1.6679515 -0.7127876   0   0   0
-3.2517352 2.6191378 0.0728813   0   0   0
-2.0986300 1.6909633 -0.6222146   0   0   0
-3.1360133 2.5286367 0.2111232   0   0   0
-2.3025291 1.8579068 -0.5750983   0   0   0
-3.1394486 2.5341206 0.3529808   0   0   0
-3.1163743 2.5172923 -0.6344982   0   0   0
-3.1431687 2.5407495 0.4962520   0   0   0
-3.1041358 2.5100935 -0.4901585   0   0   0
-3.2354879 2.6181769 0.6592149   0   0   0
-3.1230772 2.5290179 -0.3515863   0   0   0
-3.2615607 2.6421025 0.8158993   0   0   0
-3.1386917 2.5443845 -0.2117513   0   0   0
-3.2552905 2.6407893 0.9677395   0   0   0
-3.1241059 2.5352726 -0.0702285   0   0   0
-3.2691972 2.6549101 1.1284510   0   0   0
-1.9423769 1.5858582 -0.6718943   0   0   0
-3.0568366 2.4975402 0.0689021   0   0   0
-2.0716851 1.6932408 -0.6177156   0   0   0
-3.0672657 2.5087404 0.2076691   0   0   0
-2.2378480 1.8316575 -0.5621233   0   0   0
-3.0045214 2.4600482 0.3397331   0   0   0
-2.9337034 2.4037747 -0.6007084   0   0   0
-3.0378568 2.4908872 0.4823589   0   0   0
-2.9376583 2.4095871 -0.4665158   0   0   0
-2.9819918 2.4476929 0.6110330   0   0   0
-2.9344513 2.4103854 -0.3322377   0   0   0
-3.0610135 2.5152397 0.7701051   0   0   0
-2.9496140 2.4254279 -0.2001327   0   0   0
-3.0652306 2.5222917 0.9164506   0   0   0
-2.9411328 2.4210362 -0.0664937   0   0   0
-3.0671785 2.5265892 1.0647815   0   0   0
-1.8958232 1.5694764 -0.6594709   0   0   0
-2.8780758 2.3843379 0.0652371   0   0   0
-2.0015943 1.6588070 -0.6001694   0   0   0
-2.8871584 2.3944125 0.1965739   0   0   0
-2.1150444 1.7553201 -0.5342652   0   0   0
-2.8098855 2.3328118 0.3195130   0   0   0
-2.7607741 2.2936673 -0.5684828   0   0   0
-2.8071296 2.3338363 0.4482355   0   0   0
-2.7700930 2.3038621 -0.4423857   0   0   0
-2.7967293 2.3276672 0.5763046   0   0   0
-2.7740679 2.3104460 -0.3158524   0   0   0
-2.8809218 2.4002936 0.7288904   0   0   0
-2.8011112 2.3354549 -0.1911309   0   0   0
-2.8953671 2.4157553 0.8705606   0   0   0
-2.7833455 2.3231142 -0.0632824   0   0   0
-2.8838475 2.4087062 1.0068061   0   0   0
-1.8404367 1.5454048 -0.6439418   0   0   0
-2.7159193 2.2821598 0.0619211   0   0   0
-1.9064282 1.6025203 -0.5749749   0   0   0
-2.7267005 2.2936561 0.1867347   0   0   0
-2.0937266 1.7624570 -0.5319755   0   0   0
-2.6548450 2.2355871 0.3036506   0   0   0
-2.6117647 2.2008686 -0.5409504   0   0   0
-2.6587415 2.2420425 0.4270302   0   0   0
-2.6204171 2.2105072 -0.4209367   0   0   0
-2.6430509 2.2311800 0.5478335   0   0   0
-2.6285002 2.2204685 -0.3010359   0   0   0
-2.7171409 2.2961621 0.6914918   0   0   0
-2.6337588 2.2272751 -0.1807684   0   0   0
-2.7326505 2.3125408 0.8264702   0   0   0
-2.6281724 2.2249122 -0.0601061   0   0   0
-2.7298779 2.3126485 0.9586657   0   0   0
-1.7695655 1.5065509 -0.6227186   0   0   0
-2.5739825 2.1929557 0.0590240   0   0   0
-1.8672961 1.5914427 -0.5664268   0   0   0
-2.5742581 2.1955178 0.1773142   0   0   0
-2.4825816 2.1210744 -0.5171723   0   0   0
-2.4770811 2.1186197 -0.4002189   0   0   0
-2.5287535 2.1643434 0.5271841   0   0   0
-2.5028603 2.1436956 -0.2883112   0   0   0
-2.5434167 2.1792021 0.6510403   0   0   0
-2.4972384 2.1411483 -0.1723946   0   0   0
-2.5748663 2.2092669 0.7832796   0   0   0
-2.4915748 2.1385570 -0.0573137   0   0   0
-2.5939035 2.2279601 0.9162194   0   0   0
-1.6610385 1.4342760 -0.5880369   0   0   0
-2.4466426 2.1141217 0.0564411   0   0   0
-1.8310772 1.5827756 -0.5587784   0   0   0
-2.4485979 2.1180518 0.1696732   0   0   0
-2.3631349 2.0455682 -0.6075358   0   0   0
-2.4385087 2.1115577 0.2822103   0   0   0
-2.3661983 2.0503881 -0.4958973   0   0   0
-2.4446058 2.1198254 0.3972941   0   0   0
-2.3632612 2.0500107 -0.3841322   0   0   0
-2.4345198 2.1133137 0.5106021   0   0   0
-2.3705113 2.0592017 -0.2747149   0   0   0
-2.4555275 2.1338053 0.6323410   0   0   0
-2.3782382 2.0680997 -0.1651723   0   0   0
-2.4461851 2.1286860 0.7486371   0   0   0
-2.3619556 2.0561135 -0.0546609   0   0   0
-2.4617536 2.1444998 0.8748084   0   0   0
-1.6233717 1.4216551 -0.5782018   0   0   0
-2.3280540 2.0402112 0.0540326   0   0   0
-1.7833488 1.5634043 -0.5475309   0   0   0
-2.3316572 2.0455284 0.1625555   0   0   0
-2.2514219 1.9765304 -0.5823491   0   0   0
-2.3264005 2.0430734 0.2708800   0   0   0
-2.2524116 1.9794885 -0.4749350   0   0   0
-2.3432899 2.0608053 0.3831572   0   0   0
-2.2490342 1.9786084 -0.3678017   0   0   0
-2.3203685 2.0428028 0.4896399   0   0   0
-2.2514296 1.9835058 -0.2625131   0   0   0
-2.3345234 2.0574353 0.6048645   0   0   0
-2.2738662 2.0053883 -0.1588920   0   0   0
-2.3348324 2.0606053 0.7189436   0   0   0
-2.2575996 1.9931445 -0.0525666   0   0   0
-2.3337967 2.0618660 0.8344326   0   0   0
-1.6105183 1.4303879 -0.5771665   0   0   0
-2.2121160 1.9660808 0.0516591   0   0   0
-1.7185054 1.5279073 -0.5308845   0   0   0
-2.2039161 1.9608592 0.1546004   0   0   0
-2.1466579 1.9112588 -0.5586888   0   0   0
-2.1811519 1.9426527 0.2555406   0   0   0
-2.1471083 1.9136760 -0.4555372   0   0   0
-2.2147739 1.9753727 0.3643893   0   0   0
-2.0470507 1.8264209 -0.3368469   0   0   0
-2.1896429 1.9550177 0.4649232   0   0   0
-2.0607240 1.8412060 -0.2417700   0   0   0
-2.1590865 1.9297681 0.5628865   0   0   0
-2.0647941 1.8467876 -0.1451799   0   0   0
-2.2056773 1.9741821 0.6834013   0   0   0
-2.0723035 1.8554581 -0.0485526   0   0   0
-2.2071190 1.9775550 0.7940568   0   0   0
-1.6064874 1.4464878 -0.5792370   0   0   0
-2.0144684 1.8151091 0.0473309   0   0   0
-1.6733253 1.5082561 -0.5200868   0   0   0
-2.0155137 1.8179641 0.1422491   0   0   0
-2.0519857 1.8521608 -0.5373181   0   0   0
-2.0111284 1.8159193 0.2370636   0   0   0
-2.0534201 1.8554075 -0.4383294   0   0   0
-2.0113337 1.8186553 0.3329470   0   0   0
-1.9447676 1.7590829 -0.3219788   0   0   0
-2.0107934 1.8200812 0.4295690   0   0   0
-1.9536368 1.7695866 -0.2306141   0   0   0
-3.8393443 3.4788635 1.0070899   0   0   0
-1.9486052 1.7668873 -0.1378529   0   0   0
-3.8417416 3.4859228 1.1976395   0   0   0
-1.9574590 1.7767839 -0.0461442   0   0   0
-3.8466775 3.4940758 1.3924465   0   0   0
-1.9294130 1.7630316 0.0456206   0   0   0
-1.6598783 1.5172716 -0.5191870   0   0   0
-1.9217188 1.7578483 0.1364922   0   0   0
-1.9680457 1.8014868 -0.5186188   0   0   0
-1.9175844 1.7559114 0.2274765   0   0   0
-1.8641926 1.7082177 -0.4004722   0   0   0
-1.9210442 1.7615467 0.3200289   0   0   0
-1.8592966 1.7055233 -0.3097919   0   0   0
-1.9180001 1.7606050 0.4123613   0   0   0
-1.8766741 1.7238777 -0.2229444   0   0   0
-3.8265285 3.5162091 1.0101428   0   0   0
-1.8715348 1.7209644 -0.1332473   0   0   0
-3.8101418 3.5060604 1.1953899   0   0   0
-1.8743865 1.7253989 -0.0444687   0   0   0
-1.9281460 1.7761290 0.7024349   0   0   0
-1.8670928 1.7283418 -0.6817294   0   0   0
-1.8469518 1.7108951 0.0439452   0   0   0
-1.7624336 1.6331745 -0.5547293   0   0   0
-1.8408777 1.7070601 0.1315726   0   0   0
-1.8809046 1.7453990 -0.4987747   0   0   0
-1.8442587 1.7119923 0.2201554   0   0   0
-1.7873943 1.6603681 -0.3863931   0   0   0
-1.8493983 1.7191684 0.3100356   0   0   0
-1.7793208 1.6546048 -0.2983361   0   0   0
-1.8365585 1.7090263 0.3973435   0   0   0
-1.7963665 1.6727957 -0.2147518   0   0   0
-1.8459464 1.7195668 0.4903791   0   0   0
-1.7984178 1.6764650 -0.1288511   0   0   0
-1.8353823 1.7121208 0.5794739   0   0   0
-1.7880363 1.6685382 -0.0426886   0   0   0
-1.8411785 1.7193314 0.6750001   0   0   0
-1.7944163 1.6844798 -0.6594709   0   0   0
-1.7722912 1.6648743 0.0424443   0   0   0
-1.8021128 1.6934807 -0.5709258   0   0   0
-1.7648960 1.6596678 0.1269670   0   0   0
-1.8114840 1.7046701 -0.4835100   0   0   0
-1.7568244 1.6538116 0.2110912   0   0   0
-1.7139312 1.6145624 -0.3729398   0   0   0
-1.7737950 1.6721245 0.2993111   0   0   0
-1.7200669 1.6220431 -0.2902928   0   0   0
-1.7541853 1.6553743 0.3820130   0   0   0
-1.7151128 1.6196350 -0.2063848   0   0   0
-3.7962377 3.5861602 1.0151038   0   0   0
-1.7387741 1.6437020 -0.1253970   0   0   0
-3.7855055 3.5810263 1.2030382   0   0   0
-1.7226037 1.6301248 -0.0413971   0   0   0
-3.7985318 3.5971196 1.4017639   0   0   0
-1.7221599 1.6399907 -0.6372125   0   0   0
-1.6908455 1.6112962 0.0407688   0   0   0
-1.7349383 1.6538924 -0.5533796   0   0   0
-1.7023941 1.6240032 0.1233035   0   0   0
-1.7424362 1.6633636 -0.4682453   0   0   0
-1.6916312 1.6154286 0.2046417   0   0   0
-1.6494930 1.5762898 -0.3613636   0   0   0
-1.7043971 1.6298959 0.2895616   0   0   0
-1.6524729 1.5807935 -0.2807870   0   0   0
-1.6909250 1.6187085 0.3707497   0   0   0
-1.6516842 1.5822489 -0.2001096   0   0   0
-3.7676437 3.6105165 1.0143406   0   0   0
-1.6592150 1.5911300 -0.1204774   0   0   0
-3.7696259 3.6174681 1.2061876   0   0   0
-1.6517491 1.5856315 -0.0399660   0   0   0
-3.7657285 3.6175175 1.3991758   0   0   0
-1.6661997 1.6090304 -0.6206481   0   0   0
-1.6277883 1.5730354 0.0395122   0   0   0
-1.6617014 1.6063688 -0.5335839   0   0   0
-1.6364661 1.5830792 0.1193260   0   0   0
-1.6785899 1.6249634 -0.4541254   0   0   0
-1.6259240 1.5745298 0.1980179   0   0   0
-1.5760312 1.5272804 -0.3475974   0   0   0
-1.6331241 1.5837132 0.2793245   0   0   0
-1.5872533 1.5397679 -0.2715249   0   0   0
-1.6285578 1.5809405 0.3594864   0   0   0
-1.5891505 1.5437633 -0.1938344   0   0   0
-1.6275966 1.5816635 0.4411504   0   0   0
-1.5993834 1.5553324 -0.1169185   0   0   0
-1.6256403 1.5819706 0.5236861   0   0   0
-1.5933545 1.5510936 -0.0388142   0   0   0
-1.6342549 1.5920206 0.6113306   0   0   0
-1.6055112 1.5716839 -0.6020131   0   0   0
-1.5627609 1.5309030 0.0381859   0   0   0
-1.6006224 1.5685401 -0.5173874   0   0   0
-1.5657603 1.5354486 0.1149298   0   0   0
-1.6198478 1.5895985 -0.4411504   0   0   0
-1.5625622 1.5339181 0.1915683   0   0   0
-1.5233235 1.4964433 -0.3382113   0   0   0
-1.5685127 1.5419112 0.2700625   0   0   0
-1.5215359 1.4962535 -0.2620191   0   0   0
-1.5572163 1.5324106 0.3460330   0   0   0
-1.5331782 1.5098093 -0.1882564   0   0   0
-1.5692402 1.5458612 0.4281754   0   0   0
-1.5290211 1.5072933 -0.1125223   0   0   0
-1.5510180 1.5300456 0.5029905   0   0   0
-1.5372126 1.5169563 -0.0376972   0   0   0
-1.5615244 1.5420240 0.5880369   0   0   0
-1.5382878 1.5270526 -0.5807899   0   0   0
-1.5123122 1.5023153 0.0372085   0   0   0
-1.5509290 1.5412146 -0.5047902   0   0   0
-1.5111001 1.5026840 0.1116849   0   0   0
-1.5140809 1.5066997 -0.4152004   0   0   0
-1.5122787 1.5054318 0.1866876   0   0   0
-1.4750533 1.4694004 -0.3297639   0   0   0
-1.5127219 1.5079770 0.2622628   0   0   0
-1.4731010 1.4689931 -0.2554381   0   0   0
-1.4947444 1.4916171 0.3344569   0   0   0
-1.4788963 1.4768327 -0.1828527   0   0   0
-1.5111854 1.5096037 0.4152004   0   0   0
-1.4789104 1.4783943 -0.1095915   0   0   0
-1.4920782 1.4925991 0.4872440   0   0   0
-1.4686311 1.4696568 -0.0362661   0   0   0
-1.5070388 1.5091445 0.5714725   0   0   0
-1.4883678 1.4977490 -0.5657784   0   0   0
-1.4541435 1.4643309 0.0360218   0   0   0
-1.4896047 1.5005643 -0.4881438   0   0   0
-1.4628587 1.4746506 0.1088588   0   0   0
-1.4084210 1.4207658 -0.3888687   0   0   0
-1.4501070 1.4633278 0.1802381   0   0   0
-1.4149789 1.4288766 -0.3185006   0   0   0
-1.4703075 1.4857857 0.2566568   0   0   0
-1.4253743 1.4408824 -0.2488572   0   0   0
-1.4428947 1.4596121 0.3250708   0   0   0
-1.4226029 1.4400904 -0.1771005   0   0   0
-1.4608700 1.4793441 0.4041334   0   0   0
-1.4393528 1.4585727 -0.1073934   0   0   0
-1.4517810 1.4721946 0.4773462   0   0   0
-1.4234976 1.4440174 -0.0353935   0   0   0
-1.4438579 1.4656943 0.5512846   0   0   0
-1.4305509 1.4598107 -0.5476611   0   0   0
-1.3963153 1.4258703 0.0348350   0   0   0
-1.4409225 1.4719354 -0.4755465   0   0   0
-1.4120249 1.4434234 0.1058233   0   0   0
-1.3682753 1.3996781 -0.3804731   0   0   0
-1.4008654 1.4335166 0.1753574   0   0   0
-1.3608049 1.3934951 -0.3084888   0   0   0
-1.4044423 1.4391855 0.2469073   0   0   0
-1.3750814 1.4095905 -0.2417888   0   0   0
-1.3968184 1.4328732 0.3169362   0   0   0
-1.3721968 1.4085994 -0.1720454   0   0   0
-1.3984582 1.4360590 0.3896320   0   0   0
-1.3803828 1.4184878 -0.1037299   0   0   0
-1.4034272 1.4431759 0.4647489   0   0   0
-1.3785350 1.4180738 -0.0345209   0   0   0
-1.3958997 1.4369397 0.5367907   0   0   0
-1.3827357 1.4308649 -0.5331672   0   0   0
-1.3488210 1.3967451 0.0338926   0   0   0
-1.3886540 1.4384956 -0.4615996   0   0   0
-1.3644737 1.4144353 0.1029972   0   0   0
-1.3257691 1.3752738 -0.3713143   0   0   0
-1.3576429 1.4088298 0.1711739   0   0   0
-1.3195282 1.3702351 -0.3012928   0   0   0
-1.3558196 1.4089050 0.2400826   0   0   0
-1.3335543 1.3862520 -0.2361828   0   0   0
-1.3525566 1.4069879 0.3091145   0   0   0
-1.3319635 1.3865347 -0.1682106   0   0   0
-1.3448838 1.4004734 0.3774202   0   0   0
-1.3261938 1.3819761 -0.1003804   0   0   0
-1.3474584 1.4051166 0.4494522   0   0   0
-1.3326222 1.3901311 -0.0336133   0   0   0
-1.3537607 1.4131690 0.5243674   0   0   0
-1.3460582 1.4125128 -0.5228145   0   0   0
-1.3059405 1.3713726 0.0330549   0   0   0
-1.3328938 1.4001657 -0.4463029   0   0   0
-1.3132682 1.3805141 0.0998570   0   0   0
-1.2823192 1.3489230 -0.3617738   0   0   0
-1.3175799 1.3864995 0.1673390   0   0   0
-1.2786441 1.3464681 -0.2940968   0   0   0
-1.3145224 1.3852175 0.2344766   0   0   0
-1.2787595 1.3480024 -0.2281394   0   0   0
-1.3005718 1.3719546 0.2994156   0   0   0
-1.2934769 1.3654248 -0.1645500   0   0   0
-1.3094254 1.3827436 0.3701695   0   0   0
-1.2890575 1.3621874 -0.0982869   0   0   0
-1.2947695 1.3691803 0.4350553   0   0   0
-1.2816734 1.3558055 -0.0325662   0   0   0
-1.3160031 1.3930947 0.5134970   0   0   0
-1.3006866 1.3836380 -0.5088382   0   0   0
-1.2609780 1.3423356 0.0321473   0   0   0
-1.2979863 1.3822150 -0.4377548   0   0   0
-1.2669398 1.3500980 0.0970309   0   0   0
-1.2328196 1.3146574 -0.3503253   0   0   0
-1.2726837 1.3576428 0.1628069   0   0   0
-1.2410893 1.3248659 -0.2875265   0   0   0
-1.2765743 1.3636998 0.2293581   0   0   0
-1.2370017 1.3218888 -0.2222897   0   0   0
-1.2588218 1.3461479 0.2919067   0   0   0
-1.2447033 1.3319817 -0.1594950   0   0   0
-1.2731793 1.3629311 0.3625371   0   0   0
-1.2538607 1.3431902 -0.0962982   0   0   0
-1.2588341 1.3494620 0.4260573   0   0   0
-1.2355928 1.3250110 -0.0316238   0   0   0
-1.2656623 1.3582070 0.4974502   0   0   0
-1.2437158 1.3416810 -0.4902033   0   0   0
-1.2257564 1.3232331 0.0314841   0   0   0
-1.2657962 1.3669355 -0.4301064   0   0   0
-1.2330664 1.3325233 0.0951468   0   0   0
-1.1956204 1.2929621 -0.3423114   0   0   0
-1.2253065 1.3255291 0.1579262   0   0   0
-1.1969600 1.2957711 -0.2793919   0   0   0
-1.2347076 1.3375714 0.2235084   0   0   0
-1.1967803 1.2969384 -0.2166837   0   0   0
-1.2172546 1.3200505 0.2843979   0   0   0
-1.1948700 1.2966834 -0.1542657   0   0   0
-1.2317100 1.3371307 0.3533783   0   0   0
-1.2187523 1.3239912 -0.0943094   0   0   0
-1.2150805 1.3209274 0.4143598   0   0   0
-1.1992415 1.3041654 -0.0309257   0   0   0
-1.2156286 1.3229127 0.4814034   0   0   0
-1.2082509 1.3218129 -0.4798505   0   0   0
-1.1787263 1.2904177 0.0305068   0   0   0
-1.1760659 1.2879565 -0.4026624   0   0   0
-1.1968088 1.3115921 0.0930533   0   0   0
-1.1614313 1.2737142 -0.3350606   0   0   0
-1.1797837 1.2942945 0.1532198   0   0   0
-1.1546292 1.2675871 -0.2715702   0   0   0
-1.1905972 1.3079906 0.2171712   0   0   0
-1.1636490 1.2788335 -0.2122964   0   0   0
-1.1814305 1.2992859 0.2781405   0   0   0
-1.1616707 1.2784512 -0.1511281   0   0   0
-1.1840643 1.3035531 0.3423114   0   0   0
-1.1678659 1.2866222 -0.0910646   0   0   0
-1.1874995 1.3091702 0.4080612   0   0   0
-1.1672726 1.2873223 -0.0303323   0   0   0
-1.1726371 1.2941461 0.4679448   0   0   0
-1.1770054 1.3058214 -0.4710506   0   0   0
-1.1415842 1.2674128 0.0297738   0   0   0
-1.1083674 1.2309667 -0.3824168   0   0   0
-1.1542253 1.2827973 0.0904365   0   0   0
-1.1275704 1.2540534 -0.3278098   0   0   0
-1.1467453 1.2758269 0.1500822   0   0   0
-1.1219920 1.2491640 -0.2659386   0   0   0
-1.1522654 1.2837700 0.2118089   0   0   0
-1.1268529 1.2558980 -0.2071779   0   0   0
-1.1393633 1.2707332 0.2703187   0   0   0
-1.1314443 1.2627878 -0.1483391   0   0   0
-1.1421888 1.2752272 0.3327709   0   0   0
-1.1282188 1.2605151 -0.0886571   0   0   0
-1.1458522 1.2811158 0.3968137   0   0   0
-1.1369312 1.2715883 -0.0297738   0   0   0
-1.1429795 1.2792515 0.4596626   0   0   0
-1.1498934 1.2937911 -0.4638037   0   0   0
-1.1088058 1.2484391 0.0291455   0   0   0
-1.0764580 1.2124438 -0.3743185   0   0   0
-1.1160804 1.2579558 0.0881338   0   0   0
-1.0901346 1.2295760 -0.3194143   0   0   0
-1.1206310 1.2644179 0.1478161   0   0   0
-1.0909790 1.2318271 -0.2606198   0   0   0
-1.1182783 1.2635392 0.2071779   0   0   0
-1.0930657 1.2354861 -0.2025468   0   0   0
-1.1056045 1.2505379 0.2643743   0   0   0
-1.1041328 1.2497522 -0.1458987   0   0   0
-1.1098653 1.2566826 0.3259018   0   0   0
-1.0929594 1.2384113 -0.0865637   0   0   0
-1.0995001 1.2466992 0.3837665   0   0   0
-1.0976105 1.2449948 -0.0289710   0   0   0
-1.1148651 1.2654564 0.4518980   0   0   0
-1.1051821 1.2611064 -0.4493099   0   0   0
-1.0816189 1.2350883 0.0286569   0   0   0
-1.0525639 1.2023342 -0.3689197   0   0   0
-1.0809702 1.2356523 0.0860403   0   0   0
-1.0569733 1.2090729 -0.3121635   0   0   0
-1.0816221 1.2377048 0.1438070   0   0   0
-1.0615633 1.2156073 -0.2556139   0   0   0
-1.0885465 1.2473847 0.2032781   0   0   0
-1.0596198 1.2146651 -0.1979158   0   0   0
-1.0708864 1.2284454 0.2581169   0   0   0
-1.0692071 1.2273837 -0.1424125   0   0   0
-1.0804361 1.2407112 0.3197959   0   0   0
-1.0646205 1.2234114 -0.0849936   0   0   0
-1.0651947 1.2249346 0.3747685   0   0   0
-1.0613419 1.2209342 -0.0282380   0   0   0
-1.0806655 1.2440401 0.4415453   0   0   0
-1.0692106 1.2360733 -0.4379218   0   0   0
-1.0461589 1.2102776 0.0279239   0   0   0
-1.0256660 1.1869884 -0.3621712   0   0   0
-1.0481672 1.2138851 0.0840515   0   0   0
-1.0234920 1.1861454 -0.3045312   0   0   0
-1.0475801 1.2144901 0.1403207   0   0   0
-1.0266073 1.1910160 -0.2490437   0   0   0
-1.0558536 1.2258110 0.1986470   0   0   0
-1.0323249 1.1989181 -0.1942597   0   0   0
-1.0410283 1.2098799 0.2527981   0   0   0
-1.0235885 1.1904517 -0.1373574   0   0   0
-1.0468072 1.2178853 0.3121635   0   0   0
-1.0397803 1.2105645 -0.0836329   0   0   0
-1.0382240 1.2096066 0.3680199   0   0   0
-1.0273924 1.1974099 -0.0275399   0   0   0
-1.0474602 1.2216612 0.4311925   0   0   0
-1.0404975 1.2199897 -0.4296396   0   0   0
-1.0052565 1.1795031 0.0270512   0   0   0
-0.9895508 1.1614856 -0.3522733   0   0   0
-1.0202463 1.1983615 0.0824815   0   0   0
-0.9948317 1.1693367 -0.2984253   0   0   0
-1.0119696 1.1899015 0.1366602   0   0   0
-0.9888451 1.1635338 -0.2418477   0   0   0
-1.0215703 1.2028909 0.1937723   0   0   0
-0.9995199 1.1773431 -0.1896287   0   0   0
-1.0146656 1.1960294 0.2484179   0   0   0
-0.9997921 1.1793315 -0.1352657   0   0   0
-1.0052778 1.1862221 0.3022414   0   0   0
-1.0093610 1.1918836 -0.0818534   0   0   0
-1.0096122 1.1930243 0.3608215   0   0   0
-1.0035098 1.1862329 -0.0271210   0   0   0
-1.0114678 1.1964869 0.4198045   0   0   0
-1.0103990 1.2024407 -0.4208398   0   0   0
-0.9772947 1.1638691 0.0265277   0   0   0
-0.9572053 1.1403487 -0.3437252   0   0   0
-0.9908978 1.1813246 0.0808067   0   0   0
-0.9698381 1.1570379 -0.2934642   0   0   0
-0.9904239 1.1820160 0.1349171   0   0   0
-0.9574625 1.1434891 -0.2362160   0   0   0
-0.9859740 1.1783756 0.1886537   0   0   0
-0.9704851 1.1602756 -0.1857289   0   0   0
-0.9818011 1.1746374 0.2424734   0   0   0
-0.9719621 1.1636913 -0.1326510   0   0   0
-0.9751647 1.1679398 0.2957540   0   0   0
-0.9750063 1.1685791 -0.0797600   0   0   0
-0.9808730 1.1764450 0.3536231   0   0   0
-0.9781435 1.1735877 -0.0266673   0   0   0
-0.9853613 1.1830872 0.4125576   0   0   0
-0.9526819 1.1499591 -0.4001342   0   0   0
-0.9563937 1.1552601 0.0261786   0   0   0
-0.9330692 1.1274862 -0.3378765   0   0   0
-0.9622611 1.1635873 0.0791320   0   0   0
-0.9479800 1.1471334 -0.2892664   0   0   0
-0.9643828 1.1673970 0.1324767   0   0   0
-0.9368806 1.1349119 -0.2330873   0   0   0
-0.9600385 1.1637919 0.1852414   0   0   0
-0.9434171 1.1440496 -0.1820728   0   0   0
-0.9559895 1.1601205 0.2380933   0   0   0
-0.9511493 1.1550680 -0.1309079   0   0   0
-0.9557577 1.1610774 0.2923194   0   0   0
-0.9427173 1.1460506 -0.0777712   0   0   0
-0.9454121 1.1501447 0.3437252   0   0   0
-0.9508835 1.1572126 -0.0261437   0   0   0
-0.9574627 1.1660491 0.4042754   0   0   0
-0.9008298 1.1025606 -0.3814993   0   0   0
-0.9295378 1.1385083 0.0256550   0   0   0
-0.9142835 1.1202236 -0.3338274   0   0   0
-0.9353837 1.1468937 0.0775619   0   0   0
-0.9165840 1.1246443 -0.2820157   0   0   0
-0.9362793 1.1492199 0.1296877   0   0   0
-0.9166623 1.1259437 -0.2299587   0   0   0
-0.9383143 1.1533612 0.1825603   0   0   0
-0.9130633 1.1227232 -0.1776855   0   0   0
-0.9219085 1.1344081 0.2315230   0   0   0
-0.9194008 1.1321297 -0.1275960   0   0   0
-0.9342212 1.1507896 0.2881216   0   0   0
-0.9172788 1.1307260 -0.0763058   0   0   0
-0.9179267 1.1323322 0.3365268   0   0   0
-0.9165458 1.1310323 -0.0254107   0   0   0
-0.9336988 1.1530219 0.3975461   0   0   0
-0.8676624 1.0772281 -0.3706289   0   0   0
-0.8989980 1.1169299 0.0250268   0   0   0
-0.8881163 1.1038047 -0.3270788   0   0   0
-0.9085819 1.1300479 0.0759918   0   0   0
-0.8902655 1.1080588 -0.2762914   0   0   0
-0.9020333 1.1231068 0.1260272   0   0   0
-0.8927058 1.1122884 -0.2258914   0   0   0
-0.9066420 1.1304607 0.1779292   0   0   0
-0.8952694 1.1166798 -0.1757356   0   0   0
-0.9016155 1.1254002 0.2283943   0   0   0
-0.8853258 1.1058581 -0.1239355   0   0   0
-0.9102173 1.1373569 0.2831605   0   0   0
-0.8918988 1.1152648 -0.0748404   0   0   0
-0.8966169 1.1219672 0.3315779   0   0   0
-0.8911538 1.1155303 -0.0249220   0   0   0
-0.8979059 1.1247873 0.3856404   0   0   0
-0.8494959 1.0694945 -0.3659701   0   0   0
-0.8752129 1.1026616 0.0245730   0   0   0
-0.8624136 1.0869256 -0.3203303   0   0   0
-0.8872193 1.1189909 0.0748404   0   0   0
-0.8656338 1.0925497 -0.2709488   0   0   0
-0.8782864 1.1089166 0.1237612   0   0   0
-0.8593698 1.0858111 -0.2193211   0   0   0
-0.8878436 1.1225928 0.1757356   0   0   0
-0.8728741 1.1040612 -0.1728107   0   0   0
-0.8755658 1.1082609 0.2237013   0   0   0
-0.8604941 1.0899656 -0.1214951   0   0   0
-0.8659672 1.0972918 0.2717120   0   0   0
-0.8669721 1.0993541 -0.0733750   0   0   0
-0.8732787 1.1081465 0.3257291   0   0   0
-0.8649783 1.0980079 -0.0243985   0   0   0
-0.8699150 1.1050678 0.3768405   0   0   0
-0.8324811 1.0632304 -0.3618290   0   0   0
-0.8477778 1.0835460 0.0240145   0   0   0
-0.8283920 1.0591499 -0.3104325   0   0   0
-0.8560175 1.0952584 0.0728517   0   0   0
-0.8374420 1.0722626 -0.2644613   0   0   0
-0.8570364 1.0977463 0.1218437   0   0   0
-0.8371876 1.0730946 -0.2155667   0   0   0
-0.8506927 1.0911905 0.1698859   0   0   0
-0.8407404 1.0788128 -0.1679360   0   0   0
-0.8520291 1.0940856 0.2196340   0   0   0
-0.8406276 1.0802226 -0.1197520   0   0   0
-0.8462310 1.0878147 0.2678958   0   0   0
-0.8396635 1.0801501 -0.0717003   0   0   0
-0.8499801 1.0942094 0.3198804   0   0   0
-0.8462536 1.0898049 -0.0240843   0   0   0
-0.8538889 1.1004303 0.3732171   0   0   0
-0.8110578 1.0505226 -0.3556174   0   0   0
-0.8318323 1.0782087 0.0237702   0   0   0
-0.8056923 1.0447031 -0.3045837   0   0   0
-0.8265975 1.0725839 0.0709676   0   0   0
-0.8193432 1.0639389 -0.2610267   0   0   0
-0.8325293 1.0814518 0.1194034   0   0   0
-0.8130016 1.0568484 -0.2111865   0   0   0
-0.8275179 1.0764959 0.1667173   0   0   0
-0.8140250 1.0593259 -0.1640361   0   0   0
-0.8277191 1.0779252 0.2152538   0   0   0
-0.8223393 1.0716934 -0.1181832   0   0   0
-0.8256632 1.0764142 0.2636980   0   0   0
-0.8262166 1.0779146 -0.0711769   0   0   0
-0.8223679 1.0736694 0.3122321   0   0   0
-0.8217966 1.0733116 -0.0235957   0   0   0
-0.8322920 1.0878056 0.3670054   0   0   0
-0.7873258 1.0346363 -0.3483704   0   0   0
-0.8109704 1.0664803 0.0233862   0   0   0
-0.7842278 1.0316856 -0.2991849   0   0   0
-0.8082165 1.0640144 0.0700255   0   0   0
-0.7929039 1.0446123 -0.2549208   0   0   0
-0.8129159 1.0713654 0.1176603   0   0   0
-0.7924753 1.0451837 -0.2077450   0   0   0
-0.8079944 1.0664245 0.1642799   0   0   0
-0.7958230 1.0507411 -0.1618425   0   0   0
-0.7975235 1.0537504 0.2093093   0   0   0
-0.7992138 1.0567501 -0.1159171   0   0   0
-0.8110245 1.0727558 0.2614083   0   0   0
-0.8006124 1.0597522 -0.0696068   0   0   0
-0.7960661 1.0544995 0.3050336   0   0   0
-0.7998288 1.0598683 -0.0231768   0   0   0
-0.8083933 1.0719954 0.3597585   0   0   0
-0.7592195 1.0122889 -0.3390529   0   0   0
-0.7843171 1.0465131 0.0228277   0   0   0
-0.7688272 1.0262182 -0.2960356   0   0   0
-0.7923898 1.0584389 0.0692928   0   0   0
-0.7750075 1.0359739 -0.2514862   0   0   0
-0.7851321 1.0498897 0.1146970   0   0   0
-0.7733346 1.0348670 -0.2046163   0   0   0
-0.7922156 1.0609053 0.1625737   0   0   0
-0.7789685 1.0435451 -0.1598926   0   0   0
-0.7736124 1.0371249 0.2049291   0   0   0
-0.7656214 1.0271599 -0.1120823   0   0   0
-0.7859203 1.0547771 0.2556840   0   0   0
-0.7824595 1.0508978 -0.0686648   0   0   0
-0.7758892 1.0428332 0.3000847   0   0   0
-0.7721224 1.0381488 -0.0225834   0   0   0
-0.7789949 1.0481529 0.3499233   0   0   0
-0.7406510 1.0020292 -0.3338766   0   0   0
-0.7508547 1.0165759 0.0220598   0   0   0
-0.7523841 1.0190188 -0.2924364   0   0   0
-0.7695662 1.0430518 0.0679321   0   0   0
-0.7561059 1.0255572 -0.2476701   0   0   0
-0.7659630 1.0393066 0.1129538   0   0   0
-0.7485203 1.0163819 -0.1999232   0   0   0
-0.7730239 1.0504221 0.1601363   0   0   0
-0.7646063 1.0393637 -0.1584301   0   0   0
-0.7593330 1.0329508 0.2030519   0   0   0
-0.7478161 1.0180284 -0.1105135   0   0   0
-0.7634315 1.0396664 0.2507230   0   0   0
-0.7585620 1.0337911 -0.0671994   0   0   0
-0.7593715 1.0356520 0.2964855   0   0   0
-0.7565809 1.0322239 -0.0223391   0   0   0
-0.7591019 1.0364219 0.3442293   0   0   0
-0.7222633 0.9915603 -0.3287002   0   0   0
-0.7343249 1.0088590 0.0217806   0   0   0
-0.7280536 1.0006100 -0.2856878   0   0   0
-0.7493459 1.0306294 0.0667807   0   0   0
-0.7454659 1.0260458 -0.2465252   0   0   0
-0.7516637 1.0349562 0.1119080   0   0   0
-0.7321243 1.0087930 -0.1974203   0   0   0
-0.7481907 1.0316882 0.1564802   0   0   0
-0.7398548 1.0205685 -0.1547741   0   0   0
-0.7416735 1.0238291 0.2002361   0   0   0
-0.7383543 1.0199964 -0.1101649   0   0   0
-0.7446456 1.0290656 0.2469068   0   0   0
-0.7349423 1.0164030 -0.0657340   0   0   0
-0.7395685 1.0235531 0.2915366   0   0   0
-0.7411602 1.0261332 -0.0220947   0   0   0
-0.7450643 1.0322974 0.3411235   0   0   0
-0.7063114 0.9840232 -0.3245591   0   0   0
-0.7167746 0.9993365 0.0214665   0   0   0
-0.7108307 0.9914148 -0.2816387   0   0   0
-0.7258475 1.0131058 0.0653153   0   0   0
-0.7177132 1.0024912 -0.2396561   0   0   0
-0.7328248 1.0239763 0.1101649   0   0   0
-0.7124240 0.9962049 -0.1939787   0   0   0
-0.7282742 1.0191205 0.1537991   0   0   0
-0.7107882 0.9950182 -0.1501430   0   0   0
-0.7218834 1.0112963 0.1967946   0   0   0
-0.7127036 0.9991736 -0.1073759   0   0   0
-0.7260454 1.0182539 0.2430907   0   0   0
-0.7208748 1.0117494 -0.0651059   0   0   0
-0.7154509 1.0048790 0.2847880   0   0   0
-0.7200642 1.0117321 -0.0216759   0   0   0
-0.7266430 1.0217305 0.3359471   0   0   0
-0.6862077 0.9698835 -0.3183474   0   0   0
-0.7053381 0.9976609 0.0213268   0   0   0
-0.6939436 0.9819075 -0.2775896   0   0   0
-0.7039570 0.9968141 0.0639545   0   0   0
-0.6995533 0.9913126 -0.2358399   0   0   0
-0.7120562 1.0094039 0.1080731   0   0   0
-0.6976599 0.9897292 -0.1917887   0   0   0
-0.7087460 1.0062020 0.1511180   0   0   0
-0.6982846 0.9917178 -0.1489243   0   0   0
-0.6967959 0.9903376 0.1917887   0   0   0
-0.6990105 0.9942225 -0.1063300   0   0   0
-0.7145820 1.0167474 0.2415642   0   0   0
-0.7024928 1.0002881 -0.0640592   0   0   0
-0.6985196 0.9953693 0.2807389   0   0   0
-0.6947864 0.9904171 -0.0211174   0   0   0
-0.7052560 1.0060883 0.3292178   0   0   0
-0.6694772 0.9603873 -0.3136887   0   0   0
-0.6880693 0.9877931 0.0210127   0   0   0
-0.6815039 0.9787320 -0.2753401   0   0   0
-0.6889957 0.9902282 0.0632218   0   0   0
-0.6791668 0.9768291 -0.2312605   0   0   0
-0.6867985 0.9881736 0.1052841   0   0   0
-0.6760848 0.9734834 -0.1877214   0   0   0
-0.6960452 1.0029712 0.1498993   0   0   0
-0.6800292 0.9802580 -0.1464870   0   0   0
-0.6808619 0.9821904 0.1892857   0   0   0
-0.6761694 0.9761485 -0.1038896   0   0   0
-0.6839960 0.9878157 0.2335502   0   0   0
-0.6818553 0.9854589 -0.0628031   0   0   0
-0.6793628 0.9825895 0.2757900   0   0   0
-0.6764855 0.9787931 -0.0207684   0   0   0
-0.6795520 0.9839641 0.3204180   0   0   0
-0.6540069 0.9522979 -0.3095476   0   0   0
-0.6630526 0.9661919 0.0204542   0   0   0
-0.6603236 0.9625753 -0.2694914   0   0   0
-0.6719027 0.9801878 0.0622798   0   0   0
-0.6634551 0.9685890 -0.2282076   0   0   0
-0.6697524 0.9781487 0.1037153   0   0   0
-0.6547713 0.9569858 -0.1836541   0   0   0
-0.6733411 0.9848641 0.1464870   0   0   0
-0.6686889 0.9784260 -0.1455120   0   0   0
-0.6650762 0.9738695 0.1867827   0   0   0
-0.6547385 0.9594510 -0.1016236   0   0   0
-0.6649134 0.9747265 0.2293524   0   0   0
-0.6659595 0.9769924 -0.0619658   0   0   0
-0.6659043 0.9776446 0.2730906   0   0   0
-0.6640087 0.9752274 -0.0205938   0   0   0
-0.6628859 0.9743092 0.3157592   0   0   0
-0.6408476 0.9472401 -0.3064418   0   0   0
-0.6473317 0.9575441 0.0201750   0   0   0
-0.6328560 0.9364838 -0.2609432   0   0   0
-0.6561016 0.9716129 0.0614424   0   0   0
-0.6478919 0.9601778 -0.2251546   0   0   0
-0.6506519 0.9646311 0.1017979   0   0   0
-0.6392420 0.9484292 -0.1811511   0   0   0
-0.6520334 0.9681365 0.1433184   0   0   0
-0.6474299 0.9616635 -0.1423434   0   0   0
-0.6494402 0.9653768 0.1842798   0   0   0
-0.6424667 0.9557309 -0.1007520   0   0   0
-0.6438574 0.9581608 0.2243914   0   0   0
-0.6435353 0.9584039 -0.0605004   0   0   0
-0.6471194 0.9644690 0.2681417   0   0   0
-0.6505010 0.9698747 -0.0203844   0   0   0
-0.6517657 0.9724941 0.3136887   0   0   0
-0.6288625 0.9436530 -0.3038536   0   0   0
-0.6361976 0.9553822 0.0200354   0   0   0
-0.6187440 0.9295236 -0.2577939   0   0   0
-0.6382412 0.9595398 0.0603957   0   0   0
-0.6335658 0.9532322 -0.2224833   0   0   0
-0.6383889 0.9608525 0.1009263   0   0   0
-0.6238645 0.9397031 -0.1786482   0   0   0
-0.6408692 0.9660482 0.1423434   0   0   0
-0.6308268 0.9512705 -0.1401497   0   0   0
-0.6295911 0.9501271 0.1805254   0   0   0
-0.6302790 0.9518867 -0.0998805   0   0   0
-0.6328182 0.9560839 0.2228649   0   0   0
-0.6258109 0.9462146 -0.0594536   0   0   0
-0.6231793 0.9429508 0.2609432   0   0   0
-0.6337939 0.9593761 -0.0200703   0   0   0
-0.6364463 0.9641226 0.3095476   0   0   0
-0.6116586 0.9318700 -0.2986772   0   0   0
-0.6185452 0.9430792 0.0196863   0   0   0
-0.6068972 0.9256721 -0.2555444   0   0   0
-0.6216763 0.9489362 0.0594536   0   0   0
-0.6118415 0.9346357 -0.2171406   0   0   0
-0.6251196 0.9552829 0.0998805   0   0   0
-0.6129647 0.9374223 -0.1773967   0   0   0
-0.6243371 0.9555424 0.1401497   0   0   0
-0.6144007 0.9406933 -0.1379561   0   0   0
-0.6078280 0.9313399 0.1761452   0   0   0
-0.6138232 0.9412438 -0.0983117   0   0   0
-0.6207674 0.9522552 0.2209568   0   0   0
-0.6126491 0.9405193 -0.0588256   0   0   0
-0.6059504 0.9309461 0.2564442   0   0   0
-0.6183562 0.9503683 -0.0197910   0   0   0
-0.6170639 0.9491067 0.3033359   0   0   0
-0.5853695 0.9051899 -0.2888421   0   0   0
-0.6023438 0.9321516 0.0193722   0   0   0
-0.5931808 0.9183230 -0.2523951   0   0   0
-0.6087041 0.9430773 0.0588256   0   0   0
-0.6022732 0.9338291 -0.2159958   0   0   0
-0.6034886 0.9360721 0.0974401   0   0   0
-0.5948021 0.9233060 -0.1739551   0   0   0
-0.6102973 0.9480858 0.1384436   0   0   0
-0.6036867 0.9381762 -0.1369811   0   0   0
-0.5961328 0.9271479 0.1745809   0   0   0
-0.5837092 0.9085228 -0.0944768   0   0   0
-0.6057839 0.9432432 0.2179039   0   0   0
-0.5986821 0.9329013 -0.0580929   0   0   0
-0.5974958 0.9317681 0.2555444   0   0   0
-0.6021607 0.9394036 -0.0194769   0   0   0
-0.5980857 0.9337637 0.2971243   0   0   0
-0.5707343 0.8962185 -0.2847010   0   0   0
-0.5754241 0.9042794 0.0187090   0   0   0
-0.5815257 0.9142205 -0.2501456   0   0   0
-0.5999627 0.9439327 0.0586163   0   0   0
-0.5831087 0.9181238 -0.2114164   0   0   0
-0.5883960 0.9268060 0.0960456   0   0   0
-0.5777601 0.9107555 -0.1708264   0   0   0
-0.5930356 0.9355571 0.1360062   0   0   0
-0.5918099 0.9339837 -0.1357625   0   0   0
-0.5843621 0.9229422 0.1730165   0   0   0
-0.5773523 0.9125757 -0.0944768   0   0   0
-0.5781969 0.9142638 0.2102715   0   0   0
-0.5836191 0.9235510 -0.0572555   0   0   0
-0.5857741 0.9276780 0.2532949   0   0   0
-0.5902510 0.9351295 -0.0193024   0   0   0
-0.5853688 0.9281123 0.2940184   0   0   0
-0.5594879 0.8919001 -0.2821127   0   0   0
-0.5671315 0.9047865 0.0186392   0   0   0
-0.5618384 0.8966898 -0.2442968   0   0   0
-0.5776258 0.9226019 0.0570462   0   0   0
-0.5758046 0.9204072 -0.2110347   0   0   0
-0.5715098 0.9138969 0.0943025   0   0   0
-0.5621263 0.8995901 -0.1680106   0   0   0
-0.5698322 0.9126309 0.1321064   0   0   0
-0.5770303 0.9245183 -0.1338125   0   0   0
-0.5717943 0.9168416 0.1711393   0   0   0
-0.5679661 0.9114116 -0.0939539   0   0   0
-0.5595039 0.8981816 0.2056921   0   0   0
-0.5614879 0.9020679 -0.0556855   0   0   0
-0.5681247 0.9134411 0.2483460   0   0   0
-0.5743697 0.9238414 -0.0189882   0   0   0
-0.5698630 0.9173065 0.2893597   0   0   0
-0.5654292 0.9155080 -0.2883244   0   0   0
-0.5587007 0.9053202 0.0185694   0   0   0
-0.5494258 0.8906391 -0.2415974   0   0   0
-0.5648826 0.9164107 0.0564182   0   0   0
-0.5631874 0.9143749 -0.2087450   0   0   0
-0.5682495 0.9229543 0.0948254   0   0   0
-0.5589375 0.9085400 -0.1689492   0   0   0
-0.5592887 0.9098223 0.1311314   0   0   0
-0.5570514 0.9065373 -0.1306439   0   0   0
-0.5602117 0.9123942 0.1695750   0   0   0
-0.5678409 0.9255440 -0.0949998   0   0   0
-0.5614309 0.9154544 0.2087450   0   0   0
-0.5603944 0.9144806 -0.0562088   0   0   0
-0.5535928 0.9040896 0.2447467   0   0   0
-0.5595546 0.9141842 -0.0187090   0   0   0
-0.5664690 0.9262066 0.2909126   0   0   0
-0.5488301 0.9030220 -0.2831480   0   0   0
-0.5532461 0.9110042 0.0186043   0   0   0
-0.5551735 0.9145377 -0.2469963   0   0   0
-0.5593463 0.9221371 0.0565228   0   0   0
-0.5545947 0.9150237 -0.2079818   0   0   0
-0.5605981 0.9252929 0.0946511   0   0   0
-0.5493529 0.9074469 -0.1680106   0   0   0
-0.5640658 0.9324849 0.1338125   0   0   0
-0.5597944 0.9257885 -0.1328376   0   0   0
-0.5434532 0.8994722 0.1664463   0   0   0
-0.5591439 0.9261724 -0.0946511   0   0   0
-0.5579088 0.9244912 0.2098899   0   0   0
-0.5672438 0.9407020 -0.0575696   0   0   0
-0.5450978 0.9046895 0.2438469   0   0   0
-0.5591888 0.9284428 -0.0189184   0   0   0
-0.5608228 0.9318917 0.2914302   0   0   0
-0.5435043 0.9084893 -0.2836657   0   0   0
-0.5561069 0.9302920 0.0189184   0   0   0
-0.5487754 0.9183912 -0.2469963   0   0   0
-0.5528950 0.9260195 0.0565228   0   0   0
-0.5502049 0.9222451 -0.2087450   0   0   0
-0.5480018 0.9189168 0.0936053   0   0   0
-0.5500827 0.9231386 -0.1702007   0   0   0
-0.5555110 0.9329887 0.1333251   0   0   0
-0.5502719 0.9245566 -0.1321064   0   0   0
-0.5472575 0.9202226 0.1695750   0   0   0
-0.5414687 0.9112124 -0.0927337   0   0   0
-0.5514411 0.9283636 0.2098899   0   0   0
-0.5525076 0.9308989 -0.0567322   0   0   0
-0.5497030 0.9269106 0.2487959   0   0   0
-0.5404567 0.9116821 -0.0184996   0   0   0
-0.5493807 0.9274735 0.2888421   0   0   0
-0.5294639 0.8988515 -0.2795246   0   0   0
-0.5345470 0.9082054 0.0183948   0   0   0
-0.5434996 0.9237849 -0.2474462   0   0   0
-0.5465791 0.9297615 0.0565228   0   0   0
-0.5359598 0.9124264 -0.2056921   0   0   0
-0.5417342 0.9226257 0.0936053   0   0   0
-0.5307915 0.9047121 -0.1661334   0   0   0
-0.5401122 0.9213356 0.1311314   0   0   0
-0.5379441 0.9180045 -0.1306439   0   0   0
-0.5379867 0.9188123 0.1686364   0   0   0
-0.5312293 0.9079982 -0.0920365   0   0   0
-0.5332159 0.9117590 0.2053105   0   0   0
-0.5411201 0.9260160 -0.0562088   0   0   0
-0.5423985 0.9289479 0.2483460   0   0   0
-0.5332307 0.9136127 -0.0184646   0   0   0
-0.5381888 0.9228475 0.2862539   0   0   0
-0.5183317 0.8941692 -0.2769364   0   0   0
-0.5241845 0.9049936 0.0182552   0   0   0
-0.5223907 0.9022597 -0.2406976   0   0   0
-0.5280732 0.9128090 0.0552668   0   0   0
-0.5354719 0.9263441 -0.2079818   0   0   0
-0.5322896 0.9212098 0.0930823   0   0   0
-0.5224871 0.9049743 -0.1655077   0   0   0
-0.5197797 0.9010110 0.1277191   0   0   0
-0.5325139 0.9234573 -0.1308877   0   0   0
-0.5276144 0.9156994 0.1673849   0   0   0
-0.5209010 0.9047780 -0.0913392   0   0   0
-0.5199829 0.9035481 0.2026391   0   0   0
-0.5216992 0.9072627 -0.0548481   0   0   0
-0.5281333 0.9191943 0.2447467   0   0   0
-0.5338109 0.9294514 -0.0187090   0   0   0
-0.5240407 0.9131778 0.2821127   0   0   0
-0.5120767 0.8977660 -0.2769364   0   0   0
-0.5089422 0.8929949 0.0179411   0   0   0
-0.5093266 0.8940320 -0.2375483   0   0   0
-0.5187236 0.9112661 0.0549528   0   0   0
-0.5192856 0.9129945 -0.2041656   0   0   0
-0.5189523 0.9127792 0.0918621   0   0   0
-0.5103022 0.8982943 -0.1636305   0   0   0
-0.5173965 0.9115233 0.1286940   0   0   0
-0.5054820 0.8908951 -0.1257692   0   0   0
-0.5114666 0.9021762 0.1642562   0   0   0
-0.5194819 0.9170604 -0.0922108   0   0   0
-0.5107603 0.9020310 0.2014943   0   0   0
-0.5114186 0.9039294 -0.0544294   0   0   0
-0.5044411 0.8923232 0.2366485   0   0   0
-0.5086172 0.9000772 -0.0180458   0   0   0
-0.5129037 0.9084029 0.2795246   0   0   0
-0.4963425 0.8844720 -0.2717600   0   0   0
-0.5026956 0.8965262 0.0179411   0   0   0
-0.4983088 0.8890663 -0.2352988   0   0   0
-0.5064937 0.9044097 0.0543247   0   0   0
-0.5033122 0.8994648 -0.2003495   0   0   0
-0.5057590 0.9042079 0.0906420   0   0   0
-0.5001637 0.8949376 -0.1623790   0   0   0
-0.5032776 0.9012478 0.1267441   0   0   0
-0.5040878 0.9030690 -0.1269879   0   0   0
-0.4955337 0.8884730 0.1611275   0   0   0
-0.4946392 0.8875973 -0.0888989   0   0   0
-0.4996736 0.8969992 0.1995862   0   0   0
-0.4992676 0.8970069 -0.0538014   0   0   0
-0.4963050 0.8924169 0.2357487   0   0   0
-0.4974631 0.8948671 -0.0178713   0   0   0
-0.5009211 0.9018286 0.2764187   0   0   0
-0.4791035 0.8675367 -0.2655483   0   0   0
-0.4907849 0.8894222 0.0177316   0   0   0
-0.4884808 0.8856120 -0.2334992   0   0   0
-0.4945419 0.8973411 0.0536967   0   0   0
-0.4914960 0.8925514 -0.1980597   0   0   0
-0.4851812 0.8814479 0.0880273   0   0   0
-0.4883488 0.8879361 -0.1605018   0   0   0
-0.4942633 0.8994334 0.1260129   0   0   0
-0.4845491 0.8821208 -0.1235755   0   0   0
-0.4837720 0.8814352 0.1592503   0   0   0
-0.4847541 0.8839558 -0.0882016   0   0   0
-0.4860067 0.8866071 0.1965333   0   0   0
-0.4912315 0.8968810 -0.0535920   0   0   0
-0.4846058 0.8855175 0.2330493   0   0   0
-0.4856023 0.8877063 -0.0176618   0   0   0
-0.4892117 0.8950464 0.2733129   0   0   0
-0.4693470 0.8640699 -0.2634778   0   0   0
-0.4731173 0.8717364 0.0173128   0   0   0
-0.4757814 0.8770102 -0.2303499   0   0   0
-0.4854099 0.8955041 0.0533827   0   0   0
-0.4768381 0.8804240 -0.1946252   0   0   0
-0.4733245 0.8743010 0.0869814   0   0   0
-0.4708599 0.8704741 -0.1567473   0   0   0
-0.4775897 0.8836523 0.1233318   0   0   0
-0.4830967 0.8942147 -0.1247942   0   0   0
-0.4747918 0.8795761 0.1583117   0   0   0
-0.4710048 0.8732898 -0.0868071   0   0   0
-0.4704887 0.8726973 0.1927171   0   0   0
-0.4745391 0.8809464 -0.0524406   0   0   0
-0.4728705 0.8785832 0.2303499   0   0   0
-0.4737087 0.8805087 -0.0174524   0   0   0
-0.4747191 0.8831255 0.2686542   0   0   0
-0.4596623 0.8605096 -0.2614072   0   0   0
-0.4632536 0.8679615 0.0171732   0   0   0
-0.4577225 0.8579588 -0.2245011   0   0   0
-0.4706908 0.8830086 0.0524406   0   0   0
-0.4706801 0.8837315 -0.1946252   0   0   0
-0.4653367 0.8740667 0.0866328   0   0   0
-0.4582777 0.8615322 -0.1545573   0   0   0
-0.4611610 0.8676831 0.1206506   0   0   0
-0.4628723 0.8712696 -0.1211381   0   0   0
-0.4630826 0.8724005 0.1564345   0   0   0
-0.4630296 0.8730364 -0.0864585   0   0   0
-0.4616259 0.8707569 0.1915722   0   0   0
-0.4618332 0.8718832 -0.0517079   0   0   0
-0.4630791 0.8749735 0.2285503   0   0   0
-0.4666150 0.8820267 -0.0174175   0   0   0
-0.4676394 0.8847102 0.2681365   0   0   0
-0.4536437 0.8636976 -0.2614072   0   0   0
-0.4534659 0.8640917 0.0170335   0   0   0
-0.4453850 0.8490533 -0.2213518   0   0   0
-0.4524615 0.8632760 0.0510799   0   0   0
-0.4535696 0.8661254 -0.1900458   0   0   0
-0.4555273 0.8702333 0.0859356   0   0   0
-0.4485900 0.8577088 -0.1533058   0   0   0
-0.4495760 0.8603253 0.1191882   0   0   0
-0.4494258 0.8604037 -0.1191882   0   0   0
-0.4496692 0.8616024 0.1539315   0   0   0
-0.4495537 0.8621146 -0.0850640   0   0   0
-0.4500911 0.8635127 0.1892825   0   0   0
-0.4492774 0.8626862 -0.0509752   0   0   0
-0.4443660 0.8539830 0.2222516   0   0   0
-0.4512186 0.8675220 -0.0170685   0   0   0
-0.4552158 0.8759540 0.2645131   0   0   0
-0.4388878 0.8496018 -0.2562309   0   0   0
-0.4448223 0.8618274 0.0169288   0   0   0
-0.4378084 0.8486016 -0.2204520   0   0   0
-0.4419994 0.8574594 0.0505565   0   0   0
-0.4359776 0.8465029 -0.1850847   0   0   0
-0.4468575 0.8679995 0.0854126   0   0   0
-0.4400307 0.8554725 -0.1523672   0   0   0
-0.4428022 0.8615999 0.1189445   0   0   0
-0.4381165 0.8528485 -0.1177258   0   0   0
-0.4338719 0.8453118 0.1504900   0   0   0
-0.4364018 0.8509718 -0.0836695   0   0   0
-0.4477852 0.8735447 0.1908090   0   0   0
-0.4415739 0.8621689 -0.0507659   0   0   0
-0.4349919 0.8500488 0.2204520   0   0   0
-0.4407499 0.8616717 -0.0168939   0   0   0
-0.4404514 0.8618301 0.2593367   0   0   0
-0.4241995 0.8354200 -0.2510545   0   0   0
