ply
format ascii 1.0
element vertex 1075
property float x
property float y
property float z
property uchar red
property uchar green
property uchar blue
end_header
-0.7355621 -1.0485429 -0.3431941   0   0   0
-0.6595137 -0.9394383 0.0200354   0   0   0
-0.7526260 -1.0716735 -0.3023342   0   0   0
-0.6936544 -0.9869704 0.0632218   0   0   0
-0.7736679 -1.1000017 -0.2614083   0   0   0
-1.5168033 -2.1557925 0.2306141   0   0   0
-0.7642400 -1.0853889 -0.2102479   0   0   0
-1.5253248 -2.1646912 0.3251474   0   0   0
-0.6805045 -0.9653919 -0.1450245   0   0   0
-1.5132937 -2.1452305 0.4158028   0   0   0
-0.6777694 -0.9604435 -0.1028438   0   0   0
-1.5164484 -2.1473148 0.5109865   0   0   0
-0.6766399 -0.9574233 -0.0614424   0   0   0
-1.5232279 -2.1545198 0.6091675   0   0   0
-0.6652624 -0.9402796 -0.0201052   0   0   0
-1.5170995 -2.1426766 0.7034702   0   0   0
-0.7495871 -1.0528246 -0.3462999   0   0   0
-0.6693732 -0.9398137 0.0201401   0   0   0
-0.7544339 -1.0584587 -0.3000847   0   0   0
-0.7096326 -0.9952356 0.0640592   0   0   0
-0.7822778 -1.0963081 -0.2617899   0   0   0
-1.5387634 -2.1548793 0.2316600   0   0   0
-0.7934266 -1.1107020 -0.2161924   0   0   0
-1.5307884 -2.1413393 0.3231975   0   0   0
-0.6964676 -0.9735335 -0.1469744   0   0   0
-1.5324591 -2.1413059 0.4170543   0   0   0
-0.6925787 -0.9670271 -0.1040640   0   0   0
-1.5279714 -2.1318886 0.5098416   0   0   0
-0.6749946 -0.9414333 -0.0607097   0   0   0
-1.5382321 -2.1438332 0.6091675   0   0   0
-0.6834739 -0.9518556 -0.0204542   0   0   0
-1.5350301 -2.1370075 0.7050231   0   0   0
-0.7635229 -1.0570943 -0.3494057   0   0   0
-0.6841180 -0.9464624 0.0203844   0   0   0
-0.7707559 -1.0659322 -0.3036839   0   0   0
-0.7095382 -0.9805489 0.0634312   0   0   0
-0.7910638 -1.0924103 -0.2621716   0   0   0
-1.5580709 -2.1508095 0.2323572   0   0   0
-0.7988425 -1.1019372 -0.2155667   0   0   0
-1.5503631 -2.1370275 0.3241725   0   0   0
-0.7100739 -0.9784097 -0.1484369   0   0   0
-1.5496925 -2.1337519 0.4176800   0   0   0
-0.7202247 -0.9913043 -0.1072016   0   0   0
-1.5436016 -2.1230266 0.5102233   0   0   0
-0.6850758 -0.9415430 -0.0610237   0   0   0
-1.5424676 -2.1191332 0.6051183   0   0   0
-0.6875824 -0.9439486 -0.0203844   0   0   0
-1.5533257 -2.1309223 0.7065760   0   0   0
-0.7707006 -1.0518727 -0.3494057   0   0   0
-0.6917269 -0.9433965 0.0204193   0   0   0
-0.7850959 -1.0699522 -0.3063833   0   0   0
-0.7185598 -0.9789166 0.0636405   0   0   0
-0.7984812 -1.0870004 -0.2621716   0   0   0
-1.5754085 -2.1430902 0.2327058   0   0   0
-0.8063246 -1.0964742 -0.2155667   0   0   0
-1.5672265 -2.1296227 0.3246599   0   0   0
-0.7675048 -1.0421602 -0.1589176   0   0   0
-1.5606655 -2.1183829 0.4167414   0   0   0
-0.7294924 -0.9894594 -0.1075502   0   0   0
-1.5665445 -2.1232572 0.5128946   0   0   0
-0.7033293 -0.9529276 -0.0620704   0   0   0
-1.5572243 -2.1083131 0.6051183   0   0   0
-0.6882125 -0.9310849 -0.0202099   0   0   0
-1.5746857 -2.1296198 0.7096818   0   0   0
-0.7780252 -1.0464667 -0.3494057   0   0   0
-0.7090392 -0.9529835 0.0207335   0   0   0
-0.7958511 -1.0692732 -0.3077330   0   0   0
-0.7194111 -0.9658675 0.0631172   0   0   0
-0.8083969 -1.0845476 -0.2629348   0   0   0
-1.5851954 -2.1259284 0.2320086   0   0   0
-0.8210479 -1.1003175 -0.2174439   0   0   0
-1.5856190 -2.1234014 0.3253911   0   0   0
-0.8470491 -1.1339234 -0.1737857   0   0   0
-1.5742337 -2.1058536 0.4164285   0   0   0
-0.7302444 -0.9764931 -0.1066786   0   0   0
-1.5797844 -2.1109731 0.5125130   0   0   0
-0.7111620 -0.9495929 -0.0621751   0   0   0
-1.5727073 -2.0992243 0.6055682   0   0   0
-0.6981328 -0.9311788 -0.0203146   0   0   0
-1.5825584 -2.1093030 0.7065760   0   0   0
-0.7853119 -1.0410095 -0.3494057   0   0   0
-0.7106912 -0.9417505 0.0205938   0   0   0
-0.8126919 -1.0761321 -0.3113323   0   0   0
-1.6048366 -2.1242852 0.1395277   0   0   0
-0.8193123 -1.0837182 -0.2640797   0   0   0
-1.5999985 -2.1148100 0.2320086   0   0   0
-0.8368632 -1.1057291 -0.2196340   0   0   0
-1.6012342 -2.1141417 0.3256349   0   0   0
-0.8597410 -1.1343105 -0.1747606   0   0   0
-1.5933051 -2.1013858 0.4176800   0   0   0
-0.7731733 -1.0189875 -0.1119080   0   0   0
-1.5944831 -2.0998929 0.5125130   0   0   0
-0.7212335 -0.9495016 -0.0624891   0   0   0
-1.5967586 -2.1006050 0.6091675   0   0   0
-0.7179341 -0.9437893 -0.0206986   0   0   0
-1.5945395 -2.0954075 0.7055407   0   0   0
-0.8009620 -1.0461005 -0.3530292   0   0   0
-0.7212241 -0.9412775 0.0206986   0   0   0
-0.8132586 -1.0610090 -0.3086329   0   0   0
-1.6227963 -2.1156337 0.1397370   0   0   0
-0.8296252 -1.0807980 -0.2648429   0   0   0
-1.6175175 -2.1064670 0.2323572   0   0   0
-0.8425388 -1.0964322 -0.2190083   0   0   0
-1.6082178 -2.0913320 0.3239287   0   0   0
-0.8726773 -1.1344229 -0.1757356   0   0   0
-1.6134861 -2.0959110 0.4189315   0   0   0
-0.8886378 -1.1539197 -0.1274217   0   0   0
-1.6046751 -2.0822091 0.5109865   0   0   0
-0.7293940 -0.9457708 -0.0625938   0   0   0
-1.6117492 -2.0891252 0.6091675   0   0   0
-0.7283354 -0.9433763 -0.0208033   0   0   0
-1.6122189 -2.0867200 0.7065760   0   0   0
-0.8106158 -1.0435345 -0.3540645   0   0   0
-0.7300684 -0.9395045 0.0207684   0   0   0
-0.8254310 -1.0614591 -0.3104325   0   0   0
-1.6248958 -2.0887744 0.1386903   0   0   0
-0.8441986 -1.0844209 -0.2671326   0   0   0
-1.6395305 -2.1045537 0.2334031   0   0   0
-0.8584823 -1.1015786 -0.2211983   0   0   0
-1.6224157 -2.0803368 0.3239287   0   0   0
-0.8781331 -1.1251730 -0.1752481   0   0   0
-1.6301463 -2.0879941 0.4195572   0   0   0
-0.8954453 -1.1461177 -0.1272474   0   0   0
-1.6215909 -2.0740490 0.5117497   0   0   0
-0.7419670 -0.9486502 -0.0631172   0   0   0
-1.6262946 -2.0778222 0.6091675   0   0   0
-0.7546325 -0.9634570 -0.0213617   0   0   0
-1.6335342 -2.0848217 0.7096818   0   0   0
-0.8248729 -1.0470979 -0.3571703   0   0   0
-0.7378476 -0.9359552 0.0208033   0   0   0
-0.8422908 -1.0680573 -0.3140317   0   0   0
-1.6518116 -2.0930581 0.1397370   0   0   0
-0.8566158 -1.0846637 -0.2686591   0   0   0
-1.6538177 -2.0933452 0.2334031   0   0   0
-0.8686020 -1.0986577 -0.2218241   0   0   0
-1.6467530 -2.0814140 0.3258786   0   0   0
-0.8845396 -1.1176132 -0.1750044   0   0   0
-1.6373246 -2.0672715 0.4176800   0   0   0
-1.6405498 -2.0691168 0.5132762   0   0   0
-1.6343426 -2.0590725 0.6069179   0   0   0
-0.7487355 -0.9426396 -0.0210127   0   0   0
-1.6516553 -2.0779037 0.7112347   0   0   0
-0.8406051 -1.0518777 -0.3607937   0   0   0
-0.7879044 -0.9855788 0.0220249   0   0   0
-0.8545961 -1.0682378 -0.3158313   0   0   0
-1.6635244 -2.0786474 0.1395277   0   0   0
-0.8615245 -1.0757431 -0.2678958   0   0   0
-1.6634076 -2.0755296 0.2327058   0   0   0
-0.8810027 -1.0988847 -0.2230756   0   0   0
-1.6633669 -2.0732534 0.3263661   0   0   0
-0.8948060 -1.1145066 -0.1754919   0   0   0
-1.6513580 -2.0560789 0.4176800   0   0   0
-1.6812819 -2.0918405 -0.2347976   0   0   0
-1.6598766 -2.0637324 0.5148027   0   0   0
-1.6789768 -2.0867341 -0.1403650   0   0   0
-1.6511219 -2.0506482 0.6078178   0   0   0
-0.8004655 -0.9934461 -0.0222693   0   0   0
-1.6633362 -2.0636051 0.7101995   0   0   0
-0.8890989 -1.0971625 -0.3783934   0   0   0
-0.7746133 -0.9552034 0.0214665   0   0   0
-0.8630753 -1.0639094 -0.3162812   0   0   0
-1.6842895 -2.0747364 0.1400510   0   0   0
-0.8739653 -1.0757976 -0.2694223   0   0   0
-1.6787531 -2.0657053 0.2328801   0   0   0
-0.8936382 -1.0988376 -0.2243270   0   0   0
-1.6752943 -2.0585113 0.3258786   0   0   0
-0.9098911 -1.1176267 -0.1769543   0   0   0
-1.6706626 -2.0506260 0.4189315   0   0   0
-1.6866707 -2.0695372 -0.2335774   0   0   0
-1.6676813 -2.0447793 0.5128946   0   0   0
-1.6998183 -2.0826983 -0.1408884   0   0   0
-1.6699717 -2.0454001 0.6096174   0   0   0
-0.8401047 -1.0282367 -0.0231768   0   0   0
-1.6715881 -2.0444646 0.7076113   0   0   0
-0.9028705 -1.0983906 -0.3809816   0   0   0
-0.8704816 -1.0578582 -0.3162812   0   0   0
-1.7021806 -2.0678499 0.1403650   0   0   0
-0.8862607 -1.0758851 -0.2709488   0   0   0
-1.6969354 -2.0585473 0.2334031   0   0   0
-0.8960699 -1.0866333 -0.2230756   0   0   0
-1.6854768 -2.0424669 0.3251474   0   0   0
-0.9341035 -1.1311456 -0.1801229   0   0   0
-1.6870981 -2.0422525 0.4195572   0   0   0
-1.7010776 -2.0577116 -0.2335774   0   0   0
-1.6781615 -2.0285487 0.5117497   0   0   0
-1.7114085 -2.0680025 -0.1406790   0   0   0
-1.6891823 -2.0396953 0.6114169   0   0   0
-1.6970773 -2.0477729 -0.0464234   0   0   0
-1.6903974 -2.0389881 0.7096818   0   0   0
-0.9105166 -1.0920607 -0.3809816   0   0   0
-1.7012963 -2.0390630 0.0463536   0   0   0
-0.8878353 -1.0637242 -0.3198804   0   0   0
-1.7130932 -2.0510178 0.1400510   0   0   0
-0.8901596 -1.0649966 -0.2698039   0   0   0
-1.7163774 -2.0527644 0.2341003   0   0   0
-0.9088933 -1.0862534 -0.2243270   0   0   0
-1.7038722 -2.0349197 0.3258786   0   0   0
-0.9330549 -1.1139443 -0.1784167   0   0   0
-1.7092826 -2.0392110 0.4214345   0   0   0
-1.7179618 -2.0488391 -0.2339260   0   0   0
-1.7023780 -2.0288153 0.5148027   0   0   0
-1.7197411 -2.0480554 -0.1401557   0   0   0
-1.7008740 -2.0248685 0.6105171   0   0   0
-1.7332060 -2.0618978 -0.0470168   0   0   0
-1.7148932 -2.0386667 0.7138229   0   0   0
-0.9256031 -1.0945281 -0.3840875   0   0   0
-1.7164278 -2.0289621 0.0463885   0   0   0
-0.9279771 -1.0961709 -0.3315779   0   0   0
-1.7205604 -2.0316889 0.1395277   0   0   0
-0.9037346 -1.0664016 -0.2717120   0   0   0
-1.7345325 -2.0452905 0.2346233   0   0   0
-0.9213777 -1.0860670 -0.2255785   0   0   0
-1.7202533 -2.0263014 0.3263661   0   0   0
-1.7428100 -2.0514193 -0.3305097   0   0   0
-1.7180065 -2.0215085 0.4201830   0   0   0
-1.7348050 -2.0398312 -0.2342746   0   0   0
-1.7228624 -2.0243564 0.5167108   0   0   0
-1.7401155 -2.0439060 -0.1406790   0   0   0
-1.7124411 -2.0099783 0.6096174   0   0   0
-1.7358822 -2.0360520 -0.0467026   0   0   0
-1.7287302 -2.0269468 0.7138229   0   0   0
-0.9305169 -1.0852692 -0.3830522   0   0   0
-1.7357593 -2.0230005 0.0465281   0   0   0
-0.9303401 -1.0839140 -0.3297783   0   0   0
-1.7425103 -2.0287182 0.1401557   0   0   0
-0.9380314 -1.0913324 -0.2797260   0   0   0
-1.7419192 -2.0258830 0.2337517   0   0   0
-0.9495518 -1.1035662 -0.2305844   0   0   0
-1.7421292 -2.0232682 0.3278285   0   0   0
-1.7554376 -2.0380049 -0.3302659   0   0   0
-1.7294978 -2.0064728 0.4195572   0   0   0
-1.7460473 -2.0249577 -0.2339260   0   0   0
-1.7404494 -2.0170417 0.5178556   0   0   0
-1.7569528 -2.0347314 -0.1408884   0   0   0
-1.7311782 -2.0041745 0.6114169   0   0   0
-1.7483931 -2.0226765 -0.0466677   0   0   0
-1.7377833 -2.0089843 0.7117524   0   0   0
-0.9342678 -1.0743734 -0.3814993   0   0   0
-1.7442393 -2.0051038 0.0463885   0   0   0
-0.9506797 -1.0920911 -0.3342773   0   0   0
-1.7641487 -2.0258477 0.1407837   0   0   0
-0.9544668 -1.0952830 -0.2823973   0   0   0
-1.7586389 -2.0166759 0.2341003   0   0   0
-0.9492501 -1.0881459 -0.2287072   0   0   0
-1.7532498 -2.0083723 0.3273410   0   0   0
-1.7748466 -2.0316799 -0.3312409 133 174 217
-1.7509145 -2.0035787 0.4214345   0   0   0
-1.7588298 -2.0112190 -0.2337517 154 203 255
-1.7506098 -2.0004098 0.5167108   0   0   0
-1.7760242 -2.0287361 -0.1413071 173 208 255
-1.7502642 -1.9979031 0.6132166   0   0   0
-1.7677442 -2.0164359 -0.0468074 184 218 255
-1.7514176 -1.9971091 0.7117524   0   0   0
-0.9696653 -1.0998694 -0.3928873   0   0   0
-1.7634867 -1.9988761 0.0465281   0   0   0
-0.9735651 -1.1031280 -0.3396761   0   0   0
-1.7782488 -2.0134823 0.1407837 186 229 255
-1.7749645 -2.0076442 0.2344490 178 222 255
-1.7632804 -1.9916246 0.3266098   0   0   0
-1.7886345 -2.0195520 -0.3312409 142 177 227
-1.7701001 -1.9972196 0.4226859   0   0   0
-1.7804095 -2.0081456 -0.2347976 136 177 230
-1.7602767 -1.9840418 0.5155659   0   0   0
-1.7795358 -2.0043395 -0.1404697 168 194 238
-1.7664109 -1.9888573 0.6141164   0   0   0
-1.7854140 -2.0088406 -0.0469121 157 197 227
-1.7704527 -1.9906074 0.7138229   0   0   0
-1.1344125 -1.2687713 -0.4560392   0   0   0
-1.7823842 -1.9927882 0.0466677 154 185 228
-1.5543922 -1.7366621 -0.5380829   0   0   0
-1.7892482 -1.9983557 0.1405744 196 233 251
-1.8092546 -2.0192814 -0.5270144 112 142 166
-1.7942574 -2.0011373 0.2351462 193 224 255
-1.7990671 -2.0057974 -0.4267532 149 191 241
-1.7807739 -1.9840082 0.3273410 195 219 255
-1.8026900 -2.0070157 -0.3312409 115 163 233
-1.7836537 -1.9851247 0.4226859 216 239 255
-1.7983819 -2.0001118 -0.2353205 161 197 253
-1.7767112 -1.9746234 0.5163292 196 233 255
-1.8024907 -2.0025716 -0.1412024 157 188 246
-1.7763400 -1.9721332 0.6127667   0   0   0
-1.8060888 -2.0037539 -0.0470866 184 210 243
-1.7891359 -1.9842492 0.7158935   0   0   0
-1.4108329 -1.5553862 -0.5626726   0   0   0
-1.7996321 -1.9826305 0.0467375 166 198 247
-1.5903599 -1.7514638 -0.5461811   0   0   0
-1.8038487 -1.9851863 0.1405744 175 213 253
-1.8213664 -2.0030596 -0.5262512 110 133 167
-1.8138938 -1.9941423 0.2358434 191 227 255
-1.8190408 -1.9983990 -0.4280047 132 184 230
-1.7912592 -1.9664986 0.3266098 193 226 255
-1.8143317 -1.9911301 -0.3307534 138 180 237
-1.7954954 -1.9690773 0.4220602 201 233 255
-1.8113055 -1.9857197 -0.2351462 152 186 223
-1.8040315 -1.9763591 0.5201453 200 217 248
-1.8184688 -1.9907796 -0.1413071 173 204 255
-1.7890922 -1.9579329 0.6123168 205 221 246
-1.8095856 -1.9789727 -0.0468074 147 180 224
-1.8088497 -1.9767818 0.7179641   0   0   0
-1.4125019 -1.5355463 -0.5590491   0   0   0
-1.8157938 -1.9732780 0.0468074 174 204 255
-1.6078289 -1.7460526 -0.5479808   0   0   0
-1.8227323 -1.9787380 0.1409931 191 217 255
-1.8322972 -1.9877287 -0.5254880 112 143 176
-1.8250693 -1.9785014 0.2354948 199 226 255
-1.8379598 -1.9917779 -0.4292562 149 183 220
-1.8194170 -1.9703028 0.3292910 185 215 253
-1.8308824 -1.9813311 -0.3312409 154 186 214
-1.8088567 -1.9568102 0.4220602 194 221 251
-1.8264772 -1.9744886 -0.2353205 156 185 230
-1.8204523 -1.9665980 0.5209085 214 242 255
-1.8428335 -1.9900793 -0.1421445 134 178 225
-1.8080156 -1.9511126 0.6141164 195 208 223
-1.8260766 -1.9692239 -0.0468772 162 191 218
-1.8196355 -1.9615911 0.7169288   0   0   0
-1.4216037 -1.5244833 -0.5585315   0   0   0
-1.8240683 -1.9547054 0.0466677 161 190 233
-1.6303147 -1.7464643 -0.5515800   0   0   0
-1.8419555 -1.9718028 0.1414118 185 222 255
-1.8555142 -1.9849279 -0.5281593 106 139 162
-1.8357725 -1.9631224 0.2351462 191 221 255
-1.8491206 -1.9760134 -0.4286304 151 198 244
-1.8412690 -1.9662468 0.3307534 194 230 255
-1.8524691 -1.9775152 -0.3327033 153 181 231
-1.8305796 -1.9527814 0.4239374 202 219 255
-1.8357860 -1.9576505 -0.2347976 146 176 214
-1.8284224 -1.9484347 0.5193821 196 222 239
-1.8539475 -1.9742535 -0.1419351 156 199 242
-1.8279257 -1.9458624 0.6163659 206 217 228
-1.8449169 -1.9625766 -0.0470168 173 206 252
-1.8306382 -1.9460257 0.7158935   0   0   0
-1.4388486 -1.5215398 -0.5611197   0   0   0
-1.8373312 -1.9422442 0.0466677 142 189 248
-1.6210324 -1.7123967 -0.5443816   0   0   0
-1.8580810 -1.9621198 0.1416211 171 206 255
-1.8743838 -1.9779521 -0.5296858 107 138 171
-1.8549167 -1.9560413 0.2358434 192 216 255
-1.8570899 -1.9576486 -0.4273790 133 172 227
-1.8477767 -1.9464698 0.3295347 183 219 255
-1.8689640 -1.9674129 -0.3331908 128 165 203
-1.8492723 -1.9460037 0.4251889 216 240 255
-1.8549001 -1.9505619 -0.2354948 143 182 219
-1.8392736 -1.9327781 0.5186188 179 206 247
-1.8632115 -1.9572487 -0.1416211 163 200 238
-1.8428099 -1.9344648 0.6168158 204 230 247
-1.8682317 -1.9597808 -0.0472611 173 206 252
-1.8478415 -1.9377142 0.7174464   0   0   0
-1.4534472 -1.5156407 -0.5626726   0   0   0
-1.8594899 -1.9377037 0.0468772 180 215 249
-1.6383457 -1.7066615 -0.5461811   0   0   0
-1.8693067 -1.9458929 0.1414118 174 214 255
-1.8898501 -1.9659041 -0.5300674 119 146 174
-1.8740512 -1.9487884 0.2365407 176 218 255
-1.8792692 -1.9528497 -0.4292562 155 190 238
-1.8630347 -1.9346275 0.3297784 169 200 243
-1.8798990 -1.9514580 -0.3327033 146 190 235
-1.8658921 -1.9355652 0.4258146 207 239 255
-1.8809196 -1.9504724 -0.2370636 170 198 230
-1.8609018 -1.9283669 0.5209085 200 224 244
-1.8799442 -1.9467393 -0.1418304 150 185 237
-1.8589779 -1.9243556 0.6177156 207 225 238
-1.8832577 -1.9481281 -0.0472960 171 204 239
-1.8683760 -1.9313842 0.7200346   0   0   0
-1.4680333 -1.5096118 -0.5642255   0   0   0
-1.8754250 -1.9278685 0.0469470 157 203 254
-1.6651731 -1.7105421 -0.5511301 121 154 187
-1.8825085 -1.9331239 0.1414118 179 215 255
-1.8949667 -1.9445586 -0.5277777 109 138 154
-1.8903927 -1.9385105 0.2368893 199 237 255
-1.8980358 -1.9456688 -0.4305077 140 173 206
-1.8886402 -1.9346858 0.3319721 187 229 255
-1.8962511 -1.9411263 -0.3331908 116 160 205
-1.8790237 -1.9228197 0.4258146 205 223 249
-1.9014555 -1.9444160 -0.2379352 164 196 222
-1.8825576 -1.9237474 0.5231982 203 238 255
-1.8987403 -1.9396068 -0.1422491 139 183 255
-1.8682759 -1.9071546 0.6163659 191 209 226
-1.8954124 -1.9335052 -0.0472611 167 207 255
-1.8855370 -1.9227599 0.7215875   0   0   0
-1.4782748 -1.4995843 -0.5642255   0   0   0
-1.8972642 -1.9232702 0.0471564 177 215 248
-1.6808840 -1.7033293 -0.5524798 116 149 180
-1.9015718 -1.9256191 0.1418304 172 209 255
-1.9181558 -1.9410571 -0.5304490 109 139 163
-1.9007424 -1.9227644 0.2365407 180 220 255
-1.9171296 -1.9379880 -0.4317591 133 176 228
-1.8979110 -1.9172213 0.3312409 189 216 255
-1.9150071 -1.9338162 -0.3341658 154 187 233
-1.8924016 -1.9096550 0.4258146 210 228 255
-1.9090359 -1.9257685 -0.2372379 147 184 231
-1.9011390 -1.9164640 0.5247247 206 218 240
-1.9164562 -1.9305563 -0.1425631 165 203 236
-1.8853335 -1.8985418 0.6177156 191 213 245
-1.9028912 -1.9148850 -0.0471215 165 198 242
-1.8975521 -1.9081798 0.7210699   0   0   0
-1.4859762 -1.4864950 -0.5631902   0   0   0
-1.9074836 -1.9074836 0.0470866 178 217 254
-1.6844637 -1.6832882 -0.5497804 125 155 175
-1.9231130 -1.9211001 0.1424585 188 229 255
-1.9327130 -1.9293427 -0.5308306 116 147 162
-1.9141194 -1.9094480 0.2365407 200 226 255
-1.9246817 -1.9193144 -0.4305077 164 201 248
-1.9179476 -1.9112644 0.3324596 183 215 255
-1.9340874 -1.9260027 -0.3351407 165 200 232
-1.9109561 -1.9023042 0.4270661 208 237 255
-1.9210211 -1.9109889 -0.2370636 143 178 226
-1.9144721 -1.9031450 0.5247247 211 229 255
-1.9380528 -1.9259137 -0.1431912 157 205 255
-1.9096040 -1.8963187 0.6213148 210 224 245
-1.9304073 -1.9156394 -0.0474705 177 207 247
-1.9091252 -1.8938589 0.7205522   0   0   0
-1.5043103 -1.4844875 -0.5662960   0   0   0
-1.9179060 -1.8913122 0.0470168 182 215 250
-1.6903313 -1.6663113 -0.5479808 105 143 176
-1.9393235 -1.9104309 0.1426678 165 196 239
-1.9531306 -1.9226893 -0.5327387 109 139 177
-1.9341726 -1.9033623 0.2374122 192 224 255
-1.9380339 -1.9058310 -0.4305077 158 194 255
-1.9284122 -1.8950454 0.3319721 202 222 250
-1.9514006 -1.9169667 -0.3358719 145 181 222
-1.9241900 -1.8889169 0.4270661 198 227 255
-1.9425164 -1.9062418 -0.2381095 141 171 209
-1.9245784 -1.8873204 0.5239615 199 218 237
-1.9428918 -1.9039493 -0.1425631 151 184 217
-1.9280357 -1.8887315 0.6231144 202 221 252
-1.9448308 -1.9038541 -0.0475054 142 179 246
-1.9305860 -1.8885902 0.7236580   0   0   0
-1.5171485 -1.4769088 -0.5673314   0   0   0
-1.9364687 -1.8837912 0.0471564 177 203 251
-1.6935391 -1.6463199 -0.5452814 121 149 183
-1.9494177 -1.8944024 0.1424585 189 212 250
-1.9703978 -1.9134536 -0.5338836 109 142 163
-1.9574220 -1.8995255 0.2386324 172 202 226
-1.9623044 -1.9035985 -0.4330106 142 180 238
-1.9441172 -1.8846387 0.3324596 196 224 255
-1.9633101 -1.9019156 -0.3356282 143 186 229
-1.9455172 -1.8840209 0.4289433 201 217 255
-1.9643676 -1.9009472 -0.2391554 150 189 224
-1.9433526 -1.8792975 0.5254880 212 235 255
-1.9601145 -1.8948450 -0.1428772 163 195 246
-1.9369698 -1.8711635 0.6217647 197 231 247
-1.9695842 -1.9013412 -0.0477847 156 197 252
-1.9489568 -1.8807714 0.7257286   0   0   0
-1.5343903 -1.4729705 -0.5699195   0   0   0
-1.9640033 -1.8840696 0.0475054 169 195 243
-1.7075191 -1.6374519 -0.5461811 118 152 180
-1.9625955 -1.8807468 0.1424585 179 211 251
-1.9780364 -1.8942196 -0.5323571 104 139 169
-1.9717455 -1.8875357 0.2388067 177 208 243
-1.9784008 -1.8925838 -0.4336363 158 195 255
-1.9629667 -1.8765073 0.3334345 202 227 249
-1.9762105 -1.8885078 -0.3356282 138 189 240
-1.9529082 -1.8649358 0.4276918 193 219 255
-1.9801437 -1.8902838 -0.2395040 153 185 213
-1.9617816 -1.8714466 0.5270144 205 218 248
-1.9790777 -1.8866271 -0.1432959 153 196 237
-1.9482507 -1.8565912 0.6213148 203 224 245
-1.9737918 -1.8796165 -0.0475753 172 197 237
-1.9676373 -1.8724464 0.7277992   0   0   0
-1.5418303 -1.4595664 -0.5688843   0   0   0
-1.9796871 -1.8734064 0.0475753 152 194 251
-1.7302362 -1.6362031 -0.5497804 123 156 177
-1.9811574 -1.8728325 0.1428772 192 221 248
-1.9965926 -1.8861045 -0.5338836 114 144 166
-1.9790796 -1.8682537 0.2381095 186 221 255
-1.9969841 -1.8844966 -0.4348878 163 200 218
-1.9872478 -1.8739977 0.3353844 187 223 248
-1.9965700 -1.8814723 -0.3368469 134 170 213
-1.9669949 -1.8529541 0.4280047 193 223 236
-1.9903905 -1.8736825 -0.2391554 139 179 229
-1.9833788 -1.8657764 0.5293041 203 226 249
-1.9976935 -1.8785853 -0.1437145 167 198 233
-1.9668449 -1.8482828 0.6231144 219 229 249
-1.9883236 -1.8671601 -0.0476102 160 193 228
-1.9775200 -1.8563654 0.7267639   0   0   0
-1.5477458 -1.4448122 -0.5673314   0   0   0
-1.9901175 -1.8564641 0.0475054 182 205 230
-1.7473177 -1.6294000 -0.5515800 112 142 162
-2.0032754 -1.8667775 0.1435052 177 203 247
-2.0172219 -1.8784586 -0.5357916 107 138 155
-1.9964491 -1.8584644 0.2386324 182 213 255
-2.0104179 -1.8701583 -0.4348878 152 186 243
-2.0064225 -1.8651356 0.3363594 195 217 249
-2.0154731 -1.8728931 -0.3378218 145 189 236
-1.9859940 -1.8442080 0.4292562 193 217 246
-2.0048831 -1.8610969 -0.2393297 136 180 229
-1.9949166 -1.8505493 0.5289226 200 217 239
-2.0228031 -1.8751044 -0.1445519 148 181 212
-1.9911355 -1.8451031 0.6267136 200 221 255
-2.0145154 -1.8654617 -0.0479243 170 199 228
-1.9921710 -1.8434794 0.7272815   0   0   0
-1.5649014 -1.4405136 -0.5699195   0   0   0
-2.0027080 -1.8428750 0.0475054 183 220 255
-1.7443057 -1.6039714 -0.5470810 106 143 179
-2.0188763 -1.8558018 0.1437145 177 205 239
-2.0314071 -1.8660126 -0.5361733 107 137 148
-2.0137782 -1.8485233 0.2391554 194 217 240
-2.0231011 -1.8564306 -0.4348878 151 184 215
-2.0102930 -1.8433855 0.3348970 206 233 247
-2.0416713 -1.8708470 -0.3400155 129 173 220
-2.0086975 -1.8399872 0.4314463 190 210 238
-2.0237055 -1.8524361 -0.2400269 144 177 208
-2.0077872 -1.8365772 0.5289226 207 223 250
-2.0296237 -1.8559011 -0.1441332 142 176 215
-2.0097225 -1.8364156 0.6285132 200 224 228
-2.0245361 -1.8486556 -0.0478545 155 183 217
-2.0089533 -1.8337836 0.7288345   0   0   0
-1.5849330 -1.4386424 -0.5735430   0   0   0
-2.0247307 -1.8365577 0.0477149 174 211 255
-1.7641227 -1.5996088 -0.5497804 125 148 171
-2.0291443 -1.8386254 0.1435052 180 215 234
-2.0563505 -1.8619704 -0.5392262 108 137 153
-2.0354970 -1.8424417 0.2402012 187 213 250
-2.0392635 -1.8445565 -0.4355136 148 181 216
-2.0234325 -1.8289530 0.3348970 205 225 249
-2.0443721 -1.8472319 -0.3383093 139 182 223
-2.0306094 -1.8335093 0.4333235 195 221 255
-2.0439835 -1.8449378 -0.2408985 148 177 220
-2.0263913 -1.8277754 0.5304490 200 220 244
-2.0384016 -1.8373185 -0.1438192 164 193 236
-2.0138075 -1.8145137 0.6258138 209 226 230
-2.0477953 -1.8438431 -0.0480988 162 196 222
-2.0335128 -1.8296983 0.7329755   0   0   0
-1.6035748 -1.4352728 -0.5766488   4   8  12
-2.0431459 -1.8280669 0.0478545 180 207 237
-1.7752471 -1.5872540 -0.5497804 112 150 183
-2.0475688 -1.8300949 0.1439239 155 191 236
-2.0645840 -1.8440069 -0.5380813 110 139 157
-2.0512829 -1.8308399 0.2405498 183 207 238
-2.0635633 -1.8411539 -0.4380165 135 177 227
-2.0476882 -1.8257062 0.3368469 183 216 249
-2.0601826 -1.8355557 -0.3387968 143 188 228
-2.0400922 -1.8170173 0.4326977 192 211 221
-2.0612786 -1.8345971 -0.2414214 148 186 228
-2.0420358 -1.8161935 0.5312123 194 212 229
-2.0657866 -1.8366718 -0.1448659 158 186 222
-2.0322533 -1.8055879 0.6276134 178 195 217
-2.0576270 -1.8268466 -0.0480290 152 182 222
-2.0444753 -1.8145320 0.7324579   0   0   0
-1.6048651 -1.4163730 -0.5735430   0   3  10
-2.0621738 -1.8186905 0.0479941 170 196 240
-1.7833613 -1.5722444 -0.5488806 104 142 175
-2.0636096 -1.8180367 0.1441332 162 198 239
-2.0762529 -1.8278886 -0.5376998 112 139 153
-2.0625186 -1.8151585 0.2403755 185 214 230
-2.0796523 -1.8289493 -0.4386422 135 173 202
-2.0666645 -1.8162483 0.3378218 197 225 248
-2.0818949 -1.8289893 -0.3402592 149 175 210
-2.0515578 -1.8010691 0.4323848 177 201 221
-2.0725386 -1.8188479 -0.2412471 153 178 200
-2.0679500 -1.8135434 0.5346468 182 201 232
-2.0848849 -1.8271079 -0.1452846 166 191 217
-2.0565355 -1.8016292 0.6312127 196 215 225
-2.0733397 -1.8150717 -0.0480988 159 189 213
-2.0617692 -1.8036717 0.7340108   0   0   0
-1.6117994 -1.4025981 -0.5725077   3   4   7
-2.0714879 -1.8019869 0.0479243 162 192 230
-1.7898818 -1.5559206 -0.5475309 101 139 179
-2.0879972 -1.8144286 0.1449706 173 205 231
-2.0990233 -1.8227245 -0.5403711 103 128 139
-2.0766454 -1.8020210 0.2405498 186 209 236
-2.0890689 -1.8121625 -0.4380165 142 173 218
-2.0879793 -1.8099405 0.3392842 189 211 223
-2.1021149 -1.8209090 -0.3414779 162 191 218
-2.0727296 -1.7948216 0.4342621 185 211 228
-2.0881991 -1.8069420 -0.2415957 154 182 216
-2.0746202 -1.7939259 0.5331203 217 227 247
-2.1078503 -1.8220171 -0.1460173 130 169 193
-2.0779116 -1.7948713 0.6339121 201 221 226
-2.0980706 -1.8110061 -0.0483781 159 186 198
-2.0813117 -1.7959063 0.7365990   0   0   0
-1.6330365 -1.4016603 -0.5766488   3   3  15
-2.0870533 -1.7900852 0.0479941 176 203 231
-1.7959930 -1.5398959 -0.5461811  87 106 139
-2.1036468 -1.8024065 0.1451799 177 192 226
-2.1176622 -1.8131336 -0.5418975 108 133 148
-2.0964315 -1.7943218 0.2414214 180 203 226
-2.1076739 -1.8026699 -0.4392680 140 178 218
-2.0960369 -1.7914505 0.3385530 186 211 233
-2.1204977 -1.8117162 -0.3424529 135 168 203
-2.0927207 -1.7867208 0.4358264 191 207 232
-2.1140895 -1.8043271 -0.2431645 147 175 207
-2.0882766 -1.7810369 0.5335019 185 210 232
-2.1129184 -1.8007796 -0.1454940 154 176 217
-2.0960143 -1.7857411 0.6357117 198 214 239
-2.1118717 -1.7979794 -0.0484130 154 185 216
-2.0908558 -1.7788287 0.7355638   0   0   0
-1.6501554 -1.3964653 -0.5792370   0   3  12
-2.1083498 -1.7835867 0.0482035 171 194 232
-1.8052114 -1.5260620 -0.5457312  56  66 102
-2.1158664 -1.7880458 0.1451799 169 199 237
-2.1314547 -1.7999439 -0.5422792 111 138 152
-2.1210885 -1.7899219 0.2428159 199 217 234
-2.1259348 -1.7933766 -0.4405195 145 179 218
-2.1127357 -1.7809801 0.3392842 184 206 238
-2.1285393 -1.7930316 -0.3417216 157 182 208
-2.1138999 -1.7800691 0.4377036 195 215 220
-2.1281590 -1.7908070 -0.2433388 152 183 216
-2.1036649 -1.7689418 0.5342652 195 210 226
-2.1266558 -1.7876409 -0.1455986 139 172 193
-2.1084299 -1.7710648 0.6357117 201 217 226
-2.1289673 -1.7870491 -0.0485177 168 191 227
-2.1177144 -1.7769734 0.7407401   0   0   0
-1.6789032 -1.4012934 -0.5859663   3   4   7
-2.1330354 -1.7790710 0.0484828 173 189 216
-1.8335180 -1.5287143 -0.5511301  62  79 122
-2.1282978 -1.7732308 0.1451799 176 201 241
-2.1439686 -1.7850198 -0.5422792  99 124 135
-2.1347542 -1.7767173 0.2429902 161 196 230
-2.1475155 -1.7860699 -0.4423967 140 193 232
-2.1312244 -1.7712624 0.3402592 199 218 237
-2.1452754 -1.7823073 -0.3424529 133 163 187
-2.1201963 -1.7602209 0.4364522 192 208 233
-2.1464319 -1.7813693 -0.2440361 136 174 207
-2.1277463 -1.7646079 0.5373181 204 218 230
-2.1452351 -1.7778485 -0.1460173 168 192 212
-2.1174347 -1.7541858 0.6348119 204 217 218
-2.1410820 -1.7725163 -0.0485177 157 185 206
-2.1330452 -1.7646085 0.7417754   0   0   0
-1.6722361 -1.3760358 -0.5802723   3   4   7
-2.1481843 -1.7670515 0.0485526 167 190 215
-1.8321023 -1.5059772 -0.5475309  42  58  87
-2.1495771 -1.7663109 0.1458080 171 194 230
-2.1606209 -1.7741227 -0.5434240 100 127 141
-2.1471059 -1.7617707 0.2429902 156 195 230
-2.1626778 -1.7739165 -0.4430224 147 176 203
-2.1524432 -1.7642651 0.3417216 187 206 227
-2.1638088 -1.7723186 -0.3434278 150 177 207
-2.1382420 -1.7507542 0.4377036 181 199 225
-2.1572738 -1.7650794 -0.2438618 154 177 202
-2.1430535 -1.7521958 0.5380813 179 200 221
-2.1665654 -1.7707889 -0.1466454 141 179 208
-2.1356668 -1.7442915 0.6366115 177 188 199
-2.1565027 -1.7600545 -0.0485875 167 193 212
-2.1405165 -1.7463849 0.7402225   0   0   0
-1.6905639 -1.3719255 -0.5833781   3   4   7
-2.1573617 -1.7494923 0.0484828 161 193 219
-1.8483659 -1.4983803 -0.5493305  39  51  73
-2.1680636 -1.7562898 0.1462267 159 187 210
-2.1821096 -1.7664070 -0.5457137 105 129 149
-2.1621456 -1.7496217 0.2433388 171 196 238
-2.1750093 -1.7587751 -0.4430224 146 170 201
-2.1677954 -1.7516906 0.3422091 163 193 215
-2.1850877 -1.7650334 -0.3448902 139 165 182
-2.1565609 -1.7407469 0.4389551 201 217 228
-2.1738899 -1.7541080 -0.2443847 128 152 181
-2.1549306 -1.7375681 0.5380813 195 210 213
-2.1913168 -1.7656453 -0.1474827 134 171 209
-2.1520433 -1.7333814 0.6379612 199 214 217
-2.1793373 -1.7541118 -0.0488318 150 176 195
-2.1677098 -1.7435064 0.7453989   0   0   0
-1.7091516 -1.3673307 -0.5864840   0   3   7
-2.1723435 -1.7372651 0.0485526 150 183 225
-1.8481250 -1.4769238 -0.5461811  37  55  68
-2.1893308 -1.7489713 0.1468547 164 184 208
-2.1986856 -1.7551876 -0.5468586 103 125 141
-2.1820953 -1.7406969 0.2442104 181 204 231
-2.1931081 -1.7488559 -0.4442739 140 169 187
-2.1796684 -1.7368944 0.3422091 191 210 218
-2.2066741 -1.7571551 -0.3463527 139 166 178
-2.1776328 -1.7334088 0.4408323 184 203 222
-2.1985569 -1.7488111 -0.2457792 128 156 181
-2.1654716 -1.7212601 0.5376998 194 213 204
-2.2001569 -1.7482038 -0.1472734 157 179 193
-2.1824059 -1.7328566 0.6433600 182 195 179
-2.1993628 -1.7450691 -0.0490064 144 167 203
-2.1719594 -1.7227086 0.7428107   0   0   0
-1.7186557 -1.3553654 -0.5864840   3   5   5
-2.1941431 -1.7291021 0.0487620 162 188 196
-1.8629832 -1.4676033 -0.5475309  38  52  64
-2.1986513 -1.7307894 0.1466454 161 183 213
-2.2142751 -1.7418370 -0.5476218 109 131 133
-2.2035913 -1.7328101 0.2452563 150 173 198
-2.2117794 -1.7379998 -0.4455253 121 148 160
-2.1951642 -1.7237046 0.3426966 183 207 225
-2.2157643 -1.7392554 -0.3458652 136 162 181
-2.1961982 -1.7226584 0.4420838 199 213 223
-2.2157190 -1.7367213 -0.2463021 130 156 200
-2.1990707 -1.7230524 0.5430424 186 201 219
-2.2141829 -1.7336464 -0.1473781 144 168 197
-2.1932151 -1.7159946 0.6429101 196 208 214
-2.2193675 -1.7358321 -0.0491809 124 153 196
-2.2040186 -1.7225876 0.7495400   0   0   0
-1.7341769 -1.3480765 -0.5885545   6   5  10
-2.2156363 -1.7211025 0.0489715 152 182 220
-1.8701051 -1.4521712 -0.5466310  41  55  67
-2.2138367 -1.7178466 0.1468547 148 165 196
-2.2248299 -1.7251331 -0.5472402  95 120 135
-2.2266579 -1.7259283 0.2464764 179 191 199
-2.2332292 -1.7297742 -0.4474026 148 178 202
-2.2165630 -1.7156278 0.3441590 182 200 217
-2.2309926 -1.7261738 -0.3463527 142 164 205
-2.2081709 -1.7072841 0.4420838 180 203 237
-2.2372494 -1.7285191 -0.2473480 123 156 187
-2.2110460 -1.7076581 0.5430424 184 201 207
-2.2341375 -1.7242477 -0.1479014 143 164 183
-2.2035985 -1.6994513 0.6424602 183 198 205
-2.2282643 -1.7178539 -0.0491111 139 174 185
-2.2175210 -1.7083378 0.7500576   0   0   0
-1.7404790 -1.3335869 -0.5875192   3   3  11
-2.2339487 -1.7104553 0.0491111 139 164 177
-1.8863875 -1.4438179 -0.5484307  36  48  56
-2.2352941 -1.7096297 0.1474827 155 177 193
-2.2414987 -1.7131354 -0.5483850   0   1   7
-2.2354863 -1.7079222 0.2461278 167 186 207
-2.2515311 -1.7189361 -0.4486541 109 138 167
-2.2395341 -1.7085398 0.3458652 191 206 220
-2.2524598 -1.7177792 -0.3478151 117 145 168
-2.2200360 -1.6918267 0.4420838 177 197 211
-2.2445068 -1.7092370 -0.2468251 131 151 179
-2.2291622 -1.6969372 0.5445689 180 191 190
-2.2572479 -1.7170731 -0.1486341 133 160 190
-2.2278204 -1.6934603 0.6460595 184 192 182
-2.2433872 -1.7046757 -0.0491809 146 166 192
-2.2309320 -1.6939833 0.7505752   0   0   0
-1.7559131 -1.3260607 -0.5895898   0   4   6
-2.2458353 -1.6948179 0.0491111 142 161 180
-1.8995327 -1.4329605 -0.5493305  34  47  64
-2.2599339 -1.7036009 0.1483201 155 176 197
-2.2565403 -1.6998076 -0.5491483   0   0   0
-2.2505386 -1.6946710 0.2464764 159 181 183
-2.2603197 -1.7008003 -0.4480283   0   0   0
-2.2561672 -1.6964425 0.3465964 172 197 223
-2.2707446 -1.7067832 -0.3487900   0   0   0
-2.2444289 -1.6857775 0.4445868 202 218 227
-2.2579782 -1.6947218 -0.2469994 133 159 176
-2.2472363 -1.6860465 0.5460954 192 201 226
-2.2787683 -1.7084613 -0.1492621 133 153 169
-2.2458270 -1.6825398 0.6478590 180 198 197
-2.2680380 -1.6985621 -0.0494601 142 163 184
-2.2488904 -1.6829973 0.7526458   0   0   0
-1.7772948 -1.3233076 -0.5937309   2   3   6
-2.2605283 -1.6818792 0.0491809 126 149 172
-1.8982967 -1.4118569 -0.5461811  34  48  60
-2.2778895 -1.6929442 0.1487388   0   8  63
-2.2775149 -1.6914319 -0.5514380  70  87  89
-2.2684205 -1.6840636 0.2471737   0   9  59
-2.2813630 -1.6924372 -0.4499055 133 147 170
-2.2724462 -1.6845926 0.3473276 181 196 210
-2.2950687 -1.7007424 -0.3507400   0   0   0
-2.2685516 -1.6798656 0.4470897 193 209 218
-2.2854774 -1.6911643 -0.2487425   0   0   0
-2.2539256 -1.6672086 0.5449505 205 217 221
-2.2871323 -1.6905364 -0.1490528   0  10   6
-2.2650650 -1.6730031 0.6501086 195 200 196
-2.2875907 -1.6890237 -0.0496346 131 149 175
-2.2696214 -1.6745323 0.7557516   0   0   0
-1.7958350 -1.3177248 -0.5968367   4   5   8
-2.2818906 -1.6731515 0.0493903 102 133 148
-1.8908178 -1.3858975 -0.5412322  43  55  61
-2.2928755 -1.6793606 0.1489481   0   3  44
-2.2765937 -1.6662147 -0.5483850  78 100 102
-2.2995014 -1.6811324 -0.4511570 130 156 189
-2.2809455 -1.6663450 0.3468401 175 195 200
-2.3004737 -1.6799955 -0.3497650 113 136 163
-2.2850108 -1.6674807 0.4480283 184 199 213
-2.3068871 -1.6822110 -0.2497884 121 141 157
-2.2766154 -1.6595279 0.5476218 197 212 226
-2.3037217 -1.6780559 -0.1493668   0   0   0
-2.2782650 -1.6582961 0.6505585 183 193 213
-2.3009434 -1.6741889 -0.0496695   0   0   0
-2.2906313 -1.6654631 0.7588574   0   0   0
-1.8110238 -1.3099995 -0.5989073   8   8   8
-2.2948470 -1.6587518 0.0494252   0   0   0
-1.9144233 -1.3832669 -0.5452814  41  53  61
-2.1099384 -1.5234156 0.1363875 141 164 187
-2.3237116 -1.6746811 -0.4536600 132 151 182
-2.3067327 -1.6612213 0.3490338  90 107 127
-2.3199110 -1.6700969 -0.3509837 123 151 176
-2.2947044 -1.6507350 0.4477154 171 196 220
-2.3263729 -1.6722842 -0.2506599 124 149 160
-2.3006132 -1.6531583 0.5506747 182 190 197
-2.3264470 -1.6704906 -0.1500995 124 147 174
-2.2910833 -1.6438862 0.6510084 158 172 182
-2.3171606 -1.6619846 -0.0497743   0   0   0
-2.3097656 -1.6554598 0.7614456   0   0   0
-1.8138326 -1.2928392 -0.5968367   6   7  12
-1.9256212 -1.3709984 -0.5457312  32  45  64
-2.1254044 -1.5121219 0.1367015 156 177 198
-2.3041508 -1.6380800 -0.5495299  83 110 120
-2.1388764 -1.5200204 0.2295682 162 182 206
-2.3231306 -1.6485232 0.3497650 101 121 149
-2.3347521 -1.6561574 -0.3514712 124 144 158
-2.3110075 -1.6381018 0.4486541  81  97 122
-2.3331132 -1.6525477 -0.2501370 134 154 180
-2.3217120 -1.6438637 0.5529644 179 201 194
-2.3413131 -1.6565155 -0.1503089 101 124 162
-2.3120511 -1.6346014 0.6537077 170 182 173
-2.3287070 -1.6457673 -0.0497743   0   0   1
-2.3212667 -1.6392944 0.7614456   0   0   0
-1.8259759 -1.2823654 -0.5978720   3   4   9
-2.1295452 -1.4944495 0.0454112 140 166 201
-1.9526943 -1.3698323 -0.5506802  34  49  56
-2.1522639 -1.5087113 0.1377482   0  14  58
-2.3332186 -1.6343442 -0.5537277  86 106 109
-2.1461718 -1.5027657 0.2292196   0  10  60
-2.3662899 -1.6556633 -0.4574144 129 151 167
-2.3036718 -1.6106528 0.3451340 101 122 143
-2.3288653 -1.6264524 0.4499055  98 120 150
-2.3396916 -1.6327987 -0.2496140 104 128 157
-2.3331316 -1.6276152 0.5529644 186 204 203
-2.3659284 -1.6492671 -0.1511462  86 112 145
-2.3361988 -1.6273313 0.6573070 172 182 186
-2.3389974 -1.6274625 0.7635162   0   0   0
-1.8412385 -1.2739834 -0.5999426   2   3   6
-2.1448610 -1.4829578 0.0455159 131 150 160
-1.9525912 -1.3495188 -0.5479808  40  50  66
-2.1594572 -1.4913791 0.1375389   0   4  45
-2.3429556 -1.6169004 -0.5533461  87 107 110
-2.1959710 -1.5148989 0.2334031  87  92 127
-2.3680325 -1.6323764 -0.4555372 123 147 176
-2.2576425 -1.5551182 0.3366031  90 119 148
-2.3870778 -1.6436620 -0.3558585 105 131 179
-2.3564370 -1.6213516 0.4530342 127 153 197
-2.3444376 -1.6112874 0.5529644 100 111 112
-2.3724456 -1.6293176 -0.1508322  92 120 154
-2.3603568 -1.6198033 0.6609062 174 180 183
-2.3662994 -1.6232740 -0.0500884   2   5  14
-2.3646429 -1.6209241 0.7681749   0   0   0
-1.8628579 -1.2698029 -0.6040837   2   3   6
-2.1667306 -1.4758279 0.0457602   0   0   0
-1.9555217 -1.3314673 -0.5461811  33  43  51
-2.1896319 -1.4897490 0.1387950   0   0  21
-2.3704224 -1.6115422 -0.5571623  73 104 119
-2.2015498 -1.4961716 0.2328801  81  95 105
-2.3891759 -1.6224633 -0.4574144 108 136 157
-2.2865129 -1.5515802 0.3392842 101 128 169
-2.3952088 -1.6247284 -0.3553710  16  26  46
-2.3775096 -1.6115111 0.4549114 152 197 255
-2.3686347 -1.6036863 0.5560174  79  91  99
-2.3651497 -1.5989199 0.6591066 175 184 184
-2.4189954 -1.6347061 -0.0509610   0   0   0
-2.3791034 -1.6065387 0.7692102   0   0   0
-1.8813003 -1.2632284 -0.6071895   7   8  11
-2.1869442 -1.4673505 0.0459696  83 109 155
-1.9712430 -1.3221248 -0.5479808  37  49  57
-2.1916833 -1.4688666 0.1382716   9  15  45
-2.3750901 -1.5905846 -0.5556358  61  85  87
-2.4168632 -1.6167275 -0.4605431   0   0   0
-2.3220444 -1.5521268 0.3429403 167 207 255
-2.4180470 -1.6156873 -0.3570772   0   0   0
-2.3887019 -1.5948738 0.4549114 217 255 255
-2.4214375 -1.6155087 -0.2546691   0   0   0
-2.3961062 -1.5980042 0.5598336  71  92 111
-2.4016111 -1.6004646 -0.1512509   0   0   0
-2.3794987 -1.5845294 0.6600064 172 178 167
-2.3654284 -1.5745641 -0.0495997   0   0   0
-2.3950868 -1.5931001 0.7707631   0   0   0
-1.8771830 -1.2415382 -0.6030484   6   6   6
-2.2104812 -1.4608674 0.0462489   0   0   1
-1.9836770 -1.3104792 -0.5488806  32  47  52
-2.3861365 -1.5739648 -0.5556358   0   0   0
-2.4363389 -1.6052495 -0.4621074  99 108 158
-2.0741737 -1.3655889 0.3049171 160 190 228
-2.4359002 -1.6031321 -0.3580521  96 128 156
-2.4063799 -1.5825003 0.4561629 255 255 255
-2.4243314 -1.5930939 -0.2537975  93 114 133
-2.4170494 -1.5877047 0.5621233  86 102 127
-2.4477897 -1.6066744 -0.1534490  81 110 139
-2.3986504 -1.5732228 0.6622559 182 188 179
-2.1405666 -1.4034169 -0.0446782   0   0   0
-2.4093821 -1.5784578 0.7717984   0   0   0
-1.8906608 -1.2315661 -0.6046013   6   6   6
-2.2256539 -1.4486724 0.0463536   0   0   0
-1.9862437 -1.2923476 -0.5470810  31  43  49
-2.0880673 -1.3575617 0.1305259   0   0  19
-2.4003594 -1.5594072 -0.5563990   0   0   6
-2.0820141 -1.3520758 0.2171921  99 117 130
-2.4474862 -1.5882016 -0.4621074  88 121 163
-2.0270264 -1.3143554 0.2966300 166 181 186
-2.4570274 -1.5925657 -0.3595146  87 121 160
-2.4437575 -1.5815427 -0.2546691  90 110 136
-2.4313715 -1.5729247 0.5628865  92 112 138
-2.4539146 -1.5862938 -0.1531350  97 117 145
-2.4210336 -1.5638404 0.6654052 164 167 174
-2.1183932 -1.3678292 -0.0440150   1   6  12
-2.4268363 -1.5657883 0.7738689   0   0   0
-1.9089688 -1.2245954 -0.6077071   7   9   9
-2.2592826 -1.4482073 0.0468423  40  55  69
-1.9870136 -1.2731928 -0.5448315  35  44  55
-2.0705814 -1.3257202 0.1288511   0   0  18
-2.4227638 -1.5500180 -0.5590703  74  99 110
-2.0074780 -1.2838356 0.2084765 168 196 201
-2.4651723 -1.5753312 -0.4633589  94 122 145
-2.0026910 -1.2788054 0.2917552 193 214 221
-2.4764521 -1.5807139 -0.3607333  86 113 141
-2.4631400 -1.5697976 -0.2555406  87 110 137
-2.4406374 -1.5548575 0.5625049  95 110 126
-2.4615595 -1.5669787 -0.1529257  77 103 140
-2.4417577 -1.5531758 0.6681046  96 121 118
-2.1228285 -1.3497880 -0.0439103   4  12  19
-2.4458611 -1.5539877 0.7764571   0   0   0
-1.9338044 -1.2215558 -0.6128835   7   8  11
-1.9958537 -1.2592899 -0.5448315  29  39  55
-2.0324800 -1.2814076 0.1259203   0   0  26
-2.4451537 -1.5403914 -0.5617417  72  92 104
-1.9927886 -1.2549258 0.2060362 151 186 209
-2.4894853 -1.5664992 -0.4658618  93 125 163
-1.9762793 -1.2426035 0.2866367 186 198 204
-2.4874272 -1.5633867 -0.3607333  88 120 148
-2.0592599 -1.2932743 0.3851416 172 189 195
-2.4892275 -1.5620950 -0.2571094  81 109 145
-2.4697270 -1.5492568 0.5667027 113 131 146
-2.4910543 -1.5614240 -0.1540771  81 104 131
-2.4591477 -1.5402291 0.6699042  78  82  65
-2.1440642 -1.3423631 -0.0441546   0   0   0
-2.4713902 -1.5460958 0.7811159   0   0   0
-2.3094938 -1.4369742 -0.7288345   5   5   2
-2.1346850 -1.3271741 0.0438754   0   0   1
-2.0225856 -1.2569904 -0.5497804  30  42  50
-2.0072205 -1.2464703 0.1238269   0   0  20
-2.4605865 -1.5268177 -0.5628865  66  90 108
-2.0046706 -1.2434329 0.2063848  98 113 118
-2.5051274 -1.5526396 -0.4668005  92 120 152
-1.9846916 -1.2291228 0.2866367 175 200 222
-2.5030746 -1.5495538 -0.3614645  87 110 144
-2.0108969 -1.2438955 0.3745041 174 196 200
-2.5133610 -1.5534956 -0.2585039  82 104 134
-2.4952466 -1.5416975 0.5701373 130 142 138
-2.4982259 -1.5423335 -0.1538677  73  99 132
-2.4728916 -1.5255009 0.6708040  61  69  59
-2.3216593 -1.4316479 -0.0476102   0   4  49
-2.4950144 -1.5373453 0.7852570   0   0   0
-2.4446681 -1.4975077 -0.7681749   5   5   5
-2.1063757 -1.2892722 0.0431074   0   0  10
-2.0263247 -1.2397884 -0.5484307   0   0   5
-2.0107615 -1.2293017 0.1235129  80  96 107
-2.4711857 -1.5096025 -0.5628865  55  83 108
-1.9826947 -1.2107171 0.2032472 101 121 133
-2.5395136 -1.5495174 -0.4711806  97 124 163
-1.9881393 -1.2121370 0.2859055 187 197 203
-2.5256972 -1.5392729 -0.3631707  85 115 139
-1.9857887 -1.2092781 0.3682467 184 203 211
-2.5207410 -1.5338399 -0.2581553  89 110 129
-2.5143356 -1.5293411 0.5720454 170 173 161
-2.5362406 -1.5414522 -0.1555425  76  98 130
-2.4901438 -1.5122459 0.6726037  51  56  55
-2.4563823 -1.4911560 -0.0501582   0   0  22
-2.5023828 -1.5178857 0.7842217   0   0   0
-2.5262003 -1.5233002 -0.7904333   4   4   4
-2.0570896 -1.2394471 0.0419207   0   0   5
-2.0399387 -1.2286282 -0.5497804   0   0   0
-1.9936256 -1.1997862 0.1219428  67  87 103
-2.4850295 -1.4943372 -0.5636498  65  86  95
-1.9586538 -1.1773432 0.1999353 111 125 135
-2.5401087 -1.5256480 -0.4693034  90 121 152
-1.9744259 -1.1849482 0.2827369 177 194 200
-2.5551066 -1.5328362 -0.3658518  79 106 134
-1.9941826 -1.1953853 0.3682467 183 200 195
-2.5348060 -1.5182521 -0.2585039  74  98 116
-2.5106766 -1.5008241 0.6753030  50  55  54
-2.5353959 -1.5150001 -0.0515544   0   0  21
-2.5162358 -1.5023595 0.7852570   0   0   0
-2.5567086 -1.5174590 -0.7966450   6   6   3
-2.0312927 -1.2046553 0.0412226   0   0   5
-2.0400848 -1.2093881 -0.5475309   0   0   0
-1.9950794 -1.1817673 0.1215241  68  86 101
-2.5021594 -1.4809520 -0.5651762  58  83  98
-1.9719697 -1.1666843 0.2004582  85 105 133
-2.5694029 -1.5189354 -0.4727449  90 118 152
-1.9672676 -1.1620489 0.2805432 144 168 160
-2.5794203 -1.5230353 -0.3678017  87 113 146
-2.0041807 -1.1824380 0.3685596 184 201 196
-2.5573580 -1.5076017 -0.2597241  68  95 125
-2.0205402 -1.1897143 -0.1228848  95 121 154
-2.5479667 -1.4990706 0.6825015  56  58  53
-2.5631478 -1.5074002 -0.0519035   0   0  15
-2.5449841 -1.4955226 0.7909510   0   0   0
-2.5872576 -1.5112655 -0.8028567   6   6   6
-2.0275638 -1.1833889 0.0409782  52  69  89
-2.0484781 -1.1951163 -0.5475309   0   0   0
-1.9894772 -1.1597635 0.1206867  74  92 109
-2.5158300 -1.4654239 -0.5659395  63  82 101
-1.9714576 -1.1478764 0.1995866  92 114 146
-2.5782371 -1.4999673 -0.4724321  88 116 141
-1.9667513 -1.1432984 0.2793245  89 107 120
-1.9987203 -1.1604826 0.3660567 187 198 185
-2.0991488 -1.2173235 0.4716798 172 176 178
-2.5549972 -1.4792932 0.6816017  56  51  48
-2.5580323 -1.4804544 -0.0515893   0   0  11
-2.5704141 -1.4864229 0.7956098   0   0   0
-2.6027696 -1.4960545 -0.8044096   6   8   5
-2.0375102 -1.1702011 0.0410132  52  67  74
-2.0652218 -1.1856375 -0.5497804   0   0   0
-1.9905955 -1.1418710 0.1202680  69  90 111
-2.4749002 -1.4185362 -0.5544909  60  78  93
-1.9742368 -1.1311138 0.1990637 106 134 170
-1.9626232 -1.1226406 0.2776184  94 110 121
-1.9930516 -1.1386614 0.3635537 176 183 176
-2.0871339 -1.1909630 0.4671004 165 175 167
-2.5720353 -1.4652786 0.6834013  57  57  52
-2.1425714 -1.2201195 -0.0430376   0   2  37
-2.5891237 -1.4732189 0.7981979   0   0   0
-2.6196182 -1.4821087 -0.8064802   8   8   8
-2.0245388 -1.1444961 0.0405943  48  60  68
-2.0732443 -1.1715525 -0.5497804   0   0   0
-1.9931042 -1.1253492 0.1199540  78  98 124
-2.0023041 -1.1296220 -0.4468747  87 109 121
-1.9766840 -1.1147134 0.1985408 120 162 212
-2.5969520 -1.4633073 -0.4721192  89 112 137
-1.9823277 -1.1160728 0.2793245 118 138 164
-2.6174140 -1.4730320 -0.3687766  78  98 126
-2.0024779 -1.1260371 0.3638666 171 185 195
-2.6298041 -1.4775883 -0.2639076  70  88 112
-2.0951922 -1.1767288 0.4671004 174 177 188
-2.5955474 -1.4553622 0.6870005  41  44  36
-2.1438491 -1.2015965 -0.0428980   0   1  34
-2.5990918 -1.4555613 0.7981979   0   0   0
-2.6366534 -1.4675424 -0.8085507   6   8   8
-2.0254889 -1.1264467 0.0404547  45  54  65
-2.0200558 -1.1229635 -0.5335839   0   0   0
-1.9991660 -1.1104375 0.1198493  73  90 123
-2.5131059 -1.3947580 -0.5586888  58  80  92
-1.9879024 -1.1028196 0.1988894 150 195 255
-2.6485693 -1.4681259 -0.4796281  78 100 132
-1.9952806 -1.1050918 0.2800558 126 156 196
-2.6606314 -1.4729913 -0.3734077  66  91 115
-1.9999189 -1.1062928 0.3619893 125 144 135
-2.6383116 -1.4582292 -0.2637333  65  84 103
-2.0724244 -1.1449838 0.4602313 155 167 160
-2.6227083 -1.4466186 0.6914995  40  41  33
-2.1469321 -1.1837039 -0.0427933   0   0  27
-2.6227267 -1.4448380 0.8023390   0   0   0
-2.6635251 -1.4588416 -0.8137271   8   8   5
-2.0260925 -1.1087937 0.0403151  38  50  54
-2.0755229 -1.1353742 -0.5461811   0   0   0
-2.0119357 -1.0996778 0.1201634  66  86 100
-2.4915266 -1.3606817 -0.5518196  49  74  87
-1.9918654 -1.0873536 0.1985408 255 255 255
-2.6619694 -1.4519556 -0.4802538  76 101 125
-1.9940413 -1.0867351 0.2788371 133 173 244
-2.6758256 -1.4576960 -0.3741389  64  83 104
-2.0091379 -1.0935986 0.3623022  79  84  80
-2.6586781 -1.4459486 -0.2647792  62  82  98
-2.0560222 -1.1177232 0.4548886 173 183 180
-2.6461964 -1.4361694 0.6950988  37  38  30
-2.1496665 -1.1662023 -0.0426886   0   0  27
-2.6409924 -1.4315555 0.8049272   0   0   0
-2.6906526 -1.4493730 -0.8189034   7   5   3
-2.0390666 -1.0974652 0.0404198  31  43  51
-2.0885472 -1.1236266 -0.5475309   0   0   0
-2.0125270 -1.0818225 0.1197447  65  83 107
-2.5286384 -1.3581177 -0.5579255  52  71  92
-1.9923863 -1.0696517 0.1978435 255 255 255
-1.9928313 -1.0680990 0.2776184 149 187 247
-2.6876867 -1.4399173 -0.3743826   0   0   6
-2.0080159 -1.0748844 0.3607379  75  85  79
-2.6845198 -1.4358094 -0.2663479  61  75  87
-2.0603125 -1.1014911 0.4541254 166 171 165
-2.1069593 -1.1254841 -0.1251876  78 101 128
-2.6475620 -1.4130727 0.6928492  29  31  26
-2.1559913 -1.1502252 -0.0426537   0   0   9
-2.6696746 -1.4230793 0.8106213   0   0   0
-2.7146134 -1.4373139 -0.8230445   6   6   1
-2.0415647 -1.0800407 0.0403151  31  42  41
-2.1034250 -1.1122965 -0.5493305   0   0   0
-2.0184510 -1.0664606 0.1196400  59  75 100
-2.5938497 -1.3693179 -0.5701373  29  48  58
-2.0052757 -1.0581567 0.1983665 255 255 255
-2.7171769 -1.4326049 -0.4865112  75  98 132
-2.0021796 -1.0547366 0.2778621 171 213 255
-2.0034187 -1.0540496 0.3585478  69  76  71
-2.7035432 -1.4211981 -0.2672195   0   0   0
-2.0716176 -1.0885462 0.4548886 157 165 172
-2.1061172 -1.1057363 -0.1246642  77 100 136
-2.6748631 -1.4031438 0.6973483  31  31  28
-2.1535408 -1.1291963 -0.0424443   0   0   0
-2.6917682 -1.4102148 0.8142447   0   0   0
-2.7228680 -1.4174354 -0.8225269   2   1   4
-2.0455070 -1.0639162 0.0402452  26  34  39
-2.1197841 -1.1020794 -0.5515800   0   0   0
-2.0240746 -1.0514226 0.1195353  49  62  81
-2.5998609 -1.3493674 -0.5693740  45  62  82
-2.0002344 -1.0377090 0.1971463 255 255 255
-2.7323735 -1.4163278 -0.4874498  80  99 132
