ply
format ascii 1.0
element vertex 1092
property float x
property float y
property float z
property uchar red
property uchar green
property uchar blue
end_header
-4.9387488 0.4034358 -1.3277417   0   0   0
-5.6362033 0.4623899 0.0987108   0   0   0
-3.0531185 0.2510120 -0.7072461   0   0   0
-5.6390462 0.4655958 0.2965355   0   0   0
-3.0893764 0.2561645 -0.6025748   0   0   0
-5.6409378 0.4687258 0.4952189   0   0   0
-3.1181595 0.2601951 -0.4955844   0   0   0
-5.6456666 0.4730876 0.6956302   0   0   0
-5.4378800 0.4566316 -0.6700376   0   0   0
-5.6197562 0.4738797 0.8932408   0   0   0
-5.6977677 0.4824610 -0.5002739   0   0   0
-5.6339273 0.4780457 1.0990598   0   0   0
-5.6855693 0.4844265 -0.2990476   0   0   0
-5.6191268 0.4807412 1.3020167   0   0   0
-5.6783032 0.4868023 -0.0994787   0   0   0
-5.6240716 0.4841307 1.5125386   0   0   0
-4.9127207 0.4358560 -1.3215301   0   0   0
-5.6965756 0.5074037 0.0998278   0   0   0
-3.0512917 0.2723205 -0.7072461   0   0   0
-5.7132406 0.5119034 0.3006177   0   0   0
-3.0836022 0.2773742 -0.6018116   0   0   0
-5.6930895 0.5131028 0.5000997   0   0   0
-3.1083977 0.2812454 -0.4943329   0   0   0
-5.7074656 0.5184157 0.7036736   0   0   0
-8.3149357 0.7567185 -1.0251650   0   0   0
-5.6910639 0.5199305 0.9051298   0   0   0
-8.3013191 0.7613230 -0.7293193   0   0   0
-5.7106085 0.5247312 1.1147062   0   0   0
-8.3152418 0.7669905 -0.4376333   0   0   0
-5.6835489 0.5262464 1.3177633   0   0   0
-8.3050699 0.7704381 -0.1455880   0   0   0
-5.6917253 0.5300093 1.5316911   0   0   0
-4.9172502 0.4708790 -1.3236006   0   0   0
-8.2885361 0.7966353 0.1453436   0   0   0
-3.0493162 0.2936158 -0.7072461   0   0   0
-8.3157921 0.8036495 0.4378426   0   0   0
-3.0815907 0.2988949 -0.6018116   0   0   0
-8.3050108 0.8069969 0.7300165   0   0   0
-3.0866981 0.3010217 -0.4912042   0   0   0
-8.3214464 0.8144587 1.0266273   0   0   0
-8.2877188 0.8126179 -1.0224838   0   0   0
-6.5916009 0.6486352 1.0490495   0   0   0
-8.2620955 0.8159294 -0.7263560   0   0   0
-5.6911764 0.5630394 1.1116532   0   0   0
-8.2758970 0.8216682 -0.4358538   0   0   0
-5.6933107 0.5672644 1.3209126   0   0   0
-8.2855606 0.8270089 -0.1453436   0   0   0
-5.7013421 0.5710796 1.5353146   0   0   0
-4.9254618 0.5055219 -1.3267064   0   0   0
-8.2610407 0.8507812 0.1449597   0   0   0
-3.0414317 0.3137649 -0.7058964   0   0   0
-8.2882757 0.8579721 0.4366912   0   0   0
-3.0794847 0.3198635 -0.6018116   0   0   0
-8.2755451 0.8610340 0.7279248   0   0   0
-3.0865421 0.3222302 -0.4915171   0   0   0
-8.2781982 0.8671523 1.0219963   0   0   0
-8.2523813 0.8659040 -1.0188277   0   0   0
-6.5889978 0.6936943 1.0493624   0   0   0
-8.2444620 0.8708926 -0.7253101   0   0   0
-5.6618314 0.5990791 1.1066922   0   0   0
-8.2343626 0.8741856 -0.4339697   0   0   0
-5.6699395 0.6039400 1.3164135   0   0   0
-8.2578669 0.8810537 -0.1449597   0   0   0
-5.6761932 0.6076121 1.5296205   0   0   0
-4.9333344 0.5411594 -1.3298123   0   0   0
-8.2310476 0.9058080 0.1445408   0   0   0
-3.0314190 0.3341362 -0.7040968   0   0   0
-8.2364254 0.9107649 0.4342838   0   0   0
-3.0752254 0.3411379 -0.6014299   0   0   0
-8.2554712 0.9172466 0.7267046   0   0   0
-3.0822542 0.3435515 -0.4912042   0   0   0
-8.2403784 0.9213940 1.0180964   0   0   0
-8.2106256 0.9195182 -1.0144404   0   0   0
-6.5800681 0.7392358 1.0487367   0   0   0
-8.2084837 0.9250812 -0.7226954   0   0   0
-5.6419044 0.6368296 1.1036392   0   0   0
-8.2082138 0.9294035 -0.4329230   0   0   0
-5.6404133 0.6406496 1.3105649   0   0   0
-8.2157507 0.9346141 -0.1443314   0   0   0
-5.6602964 0.6459101 1.5265148   0   0   0
-3.0394034 0.3548968 -0.8199387   0   0   0
-8.2006903 0.9604577 0.1441220   0   0   0
-3.0386896 0.3564263 -0.7063463   0   0   0
-8.1981297 0.9645095 0.4326090   0   0   0
-3.0513217 0.3600678 -0.5972322   0   0   0
-8.2172089 0.9711165 0.7239156   0   0   0
-3.0954738 0.3669213 -0.4937072   0   0   0
-8.2061481 0.9756188 1.0146842   0   0   0
-8.1783810 0.9737652 -1.0112718   0   0   0
-6.5531712 0.7825784 1.0452951   0   0   0
-8.1741295 0.9790471 -0.7202551   0   0   0
-5.6275744 0.6750326 1.1017312   0   0   0
-8.1816959 0.9842989 -0.4318763   0   0   0
-5.6087174 0.6767430 1.3042662   0   0   0
-8.1713066 0.9873897 -0.1436682   0   0   0
-5.6268821 0.6819240 1.5187502   0   0   0
-3.0502720 0.3777691 -0.8235622   0   0   0
-8.1660023 1.0142348 0.1436333   0   0   0
-3.0322597 0.3771505 -0.7054465   0   0   0
-8.1674137 1.0187527 0.4313529   0   0   0
-3.0409415 0.3803863 -0.5957057   0   0   0
-8.1805744 1.0247446 0.7213009   0   0   0
-3.1104765 0.3907386 -0.4965230   0   0   0
-8.1814108 1.0306512 1.0124905   0   0   0
-8.1457806 1.0276070 -1.0081033   0   0   0
-6.5416689 0.8275650 1.0443565   0   0   0
-8.1255884 1.0308232 -0.7165945   0   0   0
-5.6051965 0.7120770 1.0982965   0   0   0
-8.1528311 1.0386171 -0.4307249   0   0   0
-5.5999904 0.7153885 1.3033664   0   0   0
-8.1423950 1.0416205 -0.1432843   0   0   0
-5.5989904 0.7182405 1.5125386   0   0   0
-4.9362435 0.6463632 -1.3339534   0   0   0
-8.1230345 1.0665333 0.1430050   0   0   0
-8.1502018 1.0744416 0.4308296   0   0   0
-8.1455688 1.0781703 0.7188606   0   0   0
-8.1794262 1.0855571 -1.3068535   0   0   0
-8.1484356 1.0843385 1.0093219   0   0   0
-8.1797295 1.0899559 -1.0132217   0   0   0
-6.5259423 0.8719059 1.0427922   0   0   0
-8.1497898 1.0917575 -0.7193835   0   0   0
-5.5670094 0.7467538 1.0918090   0   0   0
-8.1691341 1.0987035 -0.4319810   0   0   0
-5.5716844 0.7513409 1.2979676   0   0   0
-8.1468153 1.1000447 -0.1434937   0   0   0
-5.5746961 0.7547193 1.5073621   0   0   0
-4.9124737 0.6781668 -1.3287770   0   0   0
-8.1767960 1.1317152 0.1440871   0   0   0
-5.7368288 0.7950302 -1.3371091   0   0   0
-8.1761322 1.1359867 0.4326090   0   0   0
-4.8028669 0.6690162 -0.9425964   0   0   0
-8.1575766 1.1377625 0.7206037   0   0   0
-8.2968550 1.1601408 -1.3268771   0   0   0
-8.1603260 1.1439544 1.0117593   0   0   0
-8.2918358 1.1638658 -1.0280898   0   0   0
-6.5138278 0.9166182 1.0418535   0   0   0
-8.2879601 1.1692225 -0.7322826   0   0   0
-5.5402770 0.7825798 1.0876113   0   0   0
-8.2739840 1.1716696 -0.4379473   0   0   0
-5.5547271 0.7885765 1.2952682   0   0   0
-8.2616844 1.1743406 -0.1456578   0   0   0
-5.5559034 0.7917115 1.5037386   0   0   0
-4.9306860 0.7149155 -1.3349886   0   0   0
-8.2955532 1.2057546 0.1463210   0   0   0
-5.7467117 0.8363060 -1.3407083   0   0   0
-8.2986488 1.2106420 0.4395173   0   0   0
-4.8487091 0.7090788 -0.9525185   0   0   0
-8.2935524 1.2143338 0.7333284   0   0   0
-8.4177580 1.2355213 -1.3475264   0   0   0
-8.3173218 1.2237457 1.0322334   0   0   0
-8.4172668 1.2399517 -1.0446640   0   0   0
-6.4918041 0.9586263 1.0393506   0   0   0
-8.4098902 1.2448642 -0.7437871   0   0   0
-5.5309377 0.8196972 1.0868480   0   0   0
-8.3883028 1.2461576 -0.4444369   0   0   0
-5.5203185 0.8220624 1.2885196   0   0   0
-8.4117260 1.2541392 -0.1484502   0   0   0
-5.5389218 0.8277974 1.5006329   0   0   0
-4.9255748 0.7493204 -1.3349886   0   0   0
-8.4035673 1.2814237 0.1483804   0   0   0
-5.7388067 0.8761108 -1.3402584   0   0   0
-8.4183226 1.2881844 0.4463210   0   0   0
-4.8979764 0.7512456 -0.9632038   0   0   0
-8.4266634 1.2939765 0.7458789   0   0   0
-8.4616423 1.3023713 -1.3559740   0   0   0
-8.4517937 1.3038757 1.0500263   0   0   0
-8.5300388 1.3174710 -1.0597758   0   0   0
-6.4849534 1.0039239 1.0393506   0   0   0
-8.5230618 1.3224863 -0.7545944   0   0   0
-5.5056806 0.8552765 1.0830319   0   0   0
-8.4997816 1.3234320 -0.4508219   0   0   0
-5.4951906 0.8575763 1.2840207   0   0   0
-8.5114307 1.3298107 -0.1503699   0   0   0
-5.5158305 0.8637560 1.4959741   0   0   0
-4.9203606 0.7828301 -1.3349886   0   0   0
-8.5328827 1.3606371 0.1508237   0   0   0
-8.5592451 1.3694367 0.4542761   0   0   0
-4.9799814 0.7985553 -0.9803766   0   0   0
-8.5317583 1.3696209 0.7559889   0   0   0
-8.4603825 1.3611923 -1.3572254   0   0   0
-8.5799065 1.3834953 1.0670880   0   0   0
-8.6737318 1.4001777 -1.0787874   0   0   0
-6.4584699 1.0448871 1.0362219   0   0   0
-8.6515322 1.4027920 -0.7667962   0   0   0
-5.4842286 0.8902159 1.0799789   0   0   0
-8.6463127 1.4065924 -0.4590910   0   0   0
-5.4776859 0.8930792 1.2813212   0   0   0
-8.6324377 1.4089751 -0.1526736   0   0   0
-5.4831324 0.8969147 1.4887271   0   0   0
-4.9223981 0.8184288 -1.3370591   0   0   0
-8.6612511 1.4431809 0.1532670   0   0   0
-5.7607808 0.9609236 -1.3483566   0   0   0
-8.6814613 1.4512208 0.4612891   0   0   0
-5.0672264 0.8488721 -0.9986943   0   0   0
-8.6634645 1.4528759 0.7685394   0   0   0
-8.4643097 1.4225150 -1.3594155   0   0   0
-8.7129383 1.4674271 1.0848809   0   0   0
-8.8125134 1.4857792 -1.0973116   0   0   0
-6.4490700 1.0896208 1.0359091   0   0   0
-8.7849312 1.4874370 -0.7795210   0   0   0
-5.4488454 0.9235597 1.0742546   0   0   0
-8.7977448 1.4943455 -0.4676741   0   0   0
-5.4617119 0.9296636 1.2790717   0   0   0
-8.7722082 1.4947342 -0.1553264   0   0   0
-5.4634070 0.9328959 1.4851037   0   0   0
-4.9203715 0.8534337 -1.3380945   0   0   0
-8.8164577 1.5323764 0.1561990   0   0   0
-5.7289734 0.9967752 -1.3425078   0   0   0
-8.8285246 1.5392364 0.4696629   0   0   0
-6.8268833 1.1927097 -1.3471115   0   0   0
-8.8199320 1.5424973 0.7833558   0   0   0
-8.4814129 1.4863458 -1.3637956   0   0   0
-8.8354330 1.5515660 1.1014551   0   0   0
-8.9466038 1.5726980 -1.1153482   0   0   0
-6.4335241 1.1332462 1.0346576   0   0   0
-8.9234495 1.5750508 -0.7927687   0   0   0
-5.4248652 0.9585027 1.0708201   0   0   0
-8.9168978 1.5787092 -0.4745825   0   0   0
-5.4378195 0.9647069 1.2750226   0   0   0
-8.9249773 1.5849597 -0.1582235   0   0   0
-5.4434471 0.9686455 1.4814802   0   0   0
-4.9142933 0.8877633 -1.3380945   0   0   0
-8.9668980 1.6230955 0.1590612   0   0   0
-5.7237926 1.0370938 -1.3429577   0   0   0
-8.9551229 1.6258072 0.4769899   0   0   0
-6.8570213 1.2473683 -1.3547438   0   0   0
-8.9579201 1.6311604 0.7966035   0   0   0
-8.4902620 1.5490661 -1.3669244   0   0   0
-8.9825573 1.6421263 1.1211979   0   0   0
-9.0779514 1.6612030 -1.1331412   0   0   0
-6.4118547 1.1756389 1.0324675   0   0   0
-9.0650845 1.6653899 -0.8063650   0   0   0
-5.4083867 0.9945763 1.0689120   0   0   0
-9.0706520 1.6713228 -0.4833749   0   0   0
-5.4041233 0.9976932 1.2687240   0   0   0
-9.0631418 1.6748461 -0.1608763   0   0   0
-5.4270544 1.0048654 1.4788920   0   0   0
-4.9157314 0.9226184 -1.3401650   0   0   0
-9.1443062 1.7195711 0.1624121   0   0   0
-5.7300067 1.0785534 -1.3461071   0   0   0
-9.0910492 1.7144850 0.4848403   0   0   0
-6.8252225 1.2896392 -1.3501644   0   0   0
-9.0993090 1.7209772 0.8101998   0   0   0
-8.4911671 1.6090277 -1.3688016   0   0   0
-9.1310930 1.7335922 1.1411846   0   0   0
-9.2478018 1.7574222 -1.1558088   0   0   0
-6.3901205 1.2166691 1.0302774   0   0   0
-5.3918495 1.0295256 1.0670038   0   0   0
-9.1904984 1.7581691 -0.4903879   0   0   0
-5.3838096 1.0318867 1.2655746   0   0   0
-9.1713285 1.7594801 -0.1630055   0   0   0
-5.4011178 1.0381362 1.4737157   0   0   0
-4.9053783 0.9561747 -1.3391297   0   0   0
-10.1761932 1.9872690 0.1809815   0   0   0
-5.7338123 1.1207728 -1.3488065   0   0   0
-10.1843147 1.9943916 0.5438753   0   0   0
-6.8199058 1.3380123 -1.3509277   0   0   0
-9.5738802 1.8800560 0.8536034   0   0   0
-8.4836035 1.6690302 -1.3694273   0   0   0
-9.2901583 1.8310772 1.1626335   0   0   0
-10.3181477 2.0355635 -1.2913276   0   0   0
-6.3659678 1.2581865 1.0277745   0   0   0
-10.3038321 2.0402138 -0.9189702   0   0   0
-5.3729763 1.0648525 1.0647142   0   0   0
-10.3083534 2.0467186 -0.5507836   0   0   0
-5.3573618 1.0656455 1.2610756   0   0   0
-10.3041639 2.0514953 -0.1833899   0   0   0
-5.3634257 1.0697714 1.4654335   0   0   0
-4.8949690 0.9887772 -1.3380945   0   0   0
-10.3388281 2.0921857 0.1841229   0   0   0
-5.7222309 1.1590017 -1.3479067   0   0   0
-10.3584108 2.1017950 0.5539238   0   0   0
-6.8375754 1.3898777 -1.3562703   0   0   0
-9.5471945 1.9423988 0.8523831   0   0   0
-8.4643040 1.7251592 -1.3681759   0   0   0
-9.4389114 1.9272316 1.1828638   0   0   0
-10.5218811 2.1502647 -1.3186263   0   0   0
-6.3591914 1.3018850 1.0280873   0   0   0
-10.4946413 2.1523318 -0.9372728   0   0   0
-5.3425255 1.0966630 1.0601348   0   0   0
-10.4800339 2.1550548 -0.5607274   0   0   0
-5.3499842 1.1020869 1.2610756   0   0   0
-10.4838533 2.1615620 -0.1868455   0   0   0
-4.9030743 1.0260918 -1.3422356   0   0   0
-10.5588274 2.2135484 0.1883115   0   0   0
-5.7254434 1.2013229 -1.3506061   0   0   0
-10.5526228 2.2180164 0.5651237   0   0   0
-6.8430743 1.4408146 -1.3593233   0   0   0
-9.6152840 2.0262580 0.8597043   0   0   0
-8.4636507 1.7866566 -1.3700531   0   0   0
-9.4116316 1.9902053 1.1811577   0   0   0
-10.5823545 2.2396984 -1.3281322   0   0   0
-6.3383532 1.3437903 1.0262101   0   0   0
-10.5651121 2.2437568 -0.9449425   0   0   0
-5.3251376 1.1318929 1.0582267   0   0   0
-10.5663147 2.2497947 -0.5661704   0   0   0
-5.3288183 1.1365643 1.2579263   0   0   0
-10.5741110 2.2572432 -0.1887303   0   0   0
-5.4161758 1.1581615 1.4840684   0   0   0
-4.9108958 1.0635678 -1.3463767   0   0   0
-10.5626593 2.2914479 0.1886605   0   0   0
-5.7150126 1.2408509 -1.3501562   0   0   0
-10.5720100 2.2992730 0.5670077   0   0   0
-6.8520317 1.4927318 -1.3631395   0   0   0
-9.7916756 2.1349306 0.8767868   0   0   0
-8.4432516 1.8440142 -1.3688016   0   0   0
-9.3955688 2.0554376 1.1809139   0   0   0
-10.6323919 2.3279576 -1.3364192   0   0   0
-6.3191695 1.3858913 1.0246458   0   0   0
-10.6367598 2.3366973 -0.9527866   0   0   0
-5.3017664 1.1656688 1.0551738   0   0   0
-10.6361732 2.3424067 -0.5707759   0   0   0
-5.2941122 1.1678613 1.2516277   0   0   0
-10.6244860 2.3456664 -0.1899171   0   0   0
-5.3513699 1.1834308 1.4685392   0   0   0
-4.9071217 1.0986702 -1.3474120   0   0   0
-10.6283569 2.3835111 0.1901265   0   0   0
-5.6967034 1.2785848 -1.3479067   0   0   0
-10.6316977 2.3901076 0.5710900   0   0   0
-6.8452740 1.5413938 -1.3639027   0   0   0
-9.9592352 2.2444105 0.8931720   0   0   0
-8.4417334 1.9055234 -1.3706788   0   0   0
-9.3771181 2.1201048 1.1804265   0   0   0
-10.5965195 2.3977475 -1.3339819   0   0   0
-6.2862225 1.4247338 1.0208913   0   0   0
-10.5891008 2.4038413 -0.9499976   0   0   0
-5.2820125 1.2000438 1.0528840   0   0   0
-10.5942440 2.4108424 -0.5694152   0   0   0
-5.2744298 1.2021940 1.2489283   0   0   0
-10.5922546 2.4162238 -0.1896379   0   0   0
-5.3053112 1.2121552 1.4581865   0   0   0
-4.8880386 1.1302899 -1.3443061   0   0   0
-10.5880804 2.4522381 0.1897077   0   0   0
-5.7123179 1.3240442 -1.3537555   0   0   0
-10.5972424 2.4602072 0.5701479   0   0   0
-6.8343463 1.5891449 -1.3639027   0   0   0
-10.1296158 2.3572354 0.9099060   0   0   0
-8.4551582 1.9706885 -1.3750589   0   0   0
-9.3504896 2.1828096 1.1789640   0   0   0
-10.5563250 2.4662468 -1.3310570   0   0   0
-6.2645822 1.4658843 1.0190141   0   0   0
-10.5371437 2.4695246 -0.9468600   0   0   0
-5.2696829 1.2359930 1.0521208   0   0   0
-10.5596561 2.4806340 -0.5684732   0   0   0
-5.2583208 1.2372016 1.2471286   0   0   0
-10.5537167 2.4850705 -0.1892539   0   0   0
-5.2741566 1.2438422 1.4519749   0   0   0
-4.8800287 1.1643871 -1.3443061   0   0   0
-10.5259686 2.5154064 0.1889049   0   0   0
-5.6877728 1.3602650 -1.3501562   0   0   0
-10.5584431 2.5290117 0.5689965   0   0   0
-6.8307219 1.6386504 -1.3654292   0   0   0
-10.3279572 2.4795232 0.9292545   0   0   0
-8.4411945 2.0296681 -1.3750589   0   0   0
-9.3176537 2.2438519 1.1767703   0   0   0
-10.5272713 2.5370924 -1.3295945   0   0   0
-6.2522755 1.5091197 1.0187012   0   0   0
-10.4964075 2.5374091 -0.9447682   0   0   0
-5.2284865 1.2649039 1.0456333   0   0   0
-10.5207291 2.5491199 -0.5673218   0   0   0
-5.2419806 1.2720430 1.2453290   0   0   0
-10.5127926 2.5530252 -0.1888350   0   0   0
-5.2334332 1.2728708 1.4431750   0   0   0
-4.8905401 1.2030421 -1.3494825   0   0   0
-10.4965019 2.5859594 0.1886954   0   0   0
-5.6932745 1.4036716 -1.3537555   0   0   0
-10.5095062 2.5950007 0.5673218   0   0   0
-6.8419857 1.6919531 -1.3700086   0   0   0
-10.5057335 2.5999062 0.9468600   0   0   0
-8.4574966 2.0961521 -1.3800648   0   0   0
-9.2709360 2.3011947 1.1728705   0   0   0
-10.6422338 2.6435447 -1.3464125   0   0   0
-6.2320027 1.5503473 1.0171369   0   0   0
-10.6369667 2.6501219 -0.9590618   0   0   0
-5.1985741 1.2961501 1.0414355   0   0   0
-10.6247559 2.6529887 -0.5739161   0   0   0
-5.2178478 1.3048254 1.2417299   0   0   0
-10.6363239 2.6617944 -0.1913831   0   0   0
-5.2300410 1.3107847 1.4447279   0   0   0
-4.8988762 1.2414259 -1.3541412   0   0   0
-10.6991539 2.7152512 0.1926746   0   0   0
-5.6606712 1.4376273 -1.3483566   0   0   0
-10.6730833 2.7145841 0.5771610   0   0   0
-6.8566422 1.7464619 -1.3753512   0   0   0
-10.7190056 2.7322404 0.9677774   0   0   0
-8.4541407 2.1580765 -1.3819420   0   0   0
-9.1931009 2.3501282 1.1650709   0   0   0
-10.8312206 2.7709119 -1.3727363   0   0   0
-6.2152867 1.5923461 1.0161983   0   0   0
-10.8440027 2.7822495 -0.9794562   0   0   0
-5.1932015 1.3333876 1.0421988   0   0   0
-10.8419647 2.7877777 -0.5866861   0   0   0
-5.1859655 1.3353895 1.2363310   0   0   0
-10.8401718 2.7933688 -0.1953971   0   0   0
-5.2151508 1.3458169 1.4431750   0   0   0
-4.8772268 1.2713314 -1.3505177   0   0   0
-10.9242163 2.8516541 0.1970726   0   0   0
-5.6733799 1.4820352 -1.3537555   0   0   0
-10.8862267 2.8478265 0.5897216   0   0   0
-6.8256040 1.7881174 -1.3715351   0   0   0
-10.9391403 2.8677893 0.9893920   0   0   0
-8.4774685 2.2256036 -1.3881994   0   0   0
-9.2076092 2.4207246 1.1689707   0   0   0
-11.0175238 2.8986158 -1.3988163   0   0   0
-6.1909328 1.6310921 1.0140082   0   0   0
-11.0598421 2.9180067 -1.0007223   0   0   0
-5.1972928 1.3722136 1.0448700   0   0   0
-11.0351372 2.9176695 -0.5982000   0   0   0
-5.1673365 1.3681641 1.2340815   0   0   0
-11.0393353 2.9249647 -0.1993414   0   0   0
-5.1946659 1.3783112 1.4400692   0   0   0
-4.8682327 1.3053497 -1.3505177   0   0   0
-11.0971699 2.9797063 0.2005631   0   0   0
-5.6817155 1.5266632 -1.3582544   0   0   0
-11.1187353 2.9917390 0.6034335   0   0   0
-6.8129544 1.8357252 -1.3715351   0   0   0
-11.1593142 3.0089247 1.0111809   0   0   0
-8.4579096 2.2837029 -1.3875737   0   0   0
-9.1770706 2.4813194 1.1672646   0   0   0
-11.0353432 2.9858305 -1.4036911   0   0   0
-6.1774883 1.6737562 1.0136954   0   0   0
-11.2834063 3.0614047 -1.0228598   0   0   0
-5.1781130 1.4058918 1.0429620   0   0   0
-11.2939577 3.0706172 -0.6133774   0   0   0
-5.1501379 1.4021575 1.2322819   0   0   0
-11.2656059 3.0692446 -0.2038092   0   0   0
-5.1588249 1.4074244 1.4328222   0   0   0
-4.8555098 1.3374301 -1.3494825   0   0   0
-11.3503666 3.1306748 0.2055195   0   0   0
-5.6599212 1.5621908 -1.3555551   0   0   0
-11.3502998 3.1370523 0.6171456   0   0   0
-6.8003016 1.8820566 -1.3715351   0   0   0
-11.3881893 3.1539438 1.0338414   0   0   0
-8.4307480 2.3380535 -1.3856965   0   0   0
-9.1657066 2.5453212 1.1679958   0   0   0
-11.0740547 3.0773523 -1.4112470   0   0   0
-5.9375839 1.6522191 0.9761510   0   0   0
-11.5348434 3.2140768 -1.0476121   0   0   0
-5.1627502 1.4395233 1.0418171   0   0   0
-11.5363398 3.2210040 -0.6277174   0   0   0
-5.1329675 1.4350818 1.2304822   0   0   0
-11.5140591 3.2212827 -0.2086959   0   0   0
-5.1379638 1.4393797 1.4297163   0   0   0
-4.8683605 1.3776072 -1.3556942   0   0   0
-11.5821953 3.2817981 0.2101270   0   0   0
-5.6638756 1.6059188 -1.3591542   0   0   0
-11.5836582 3.2887657 0.6310670   0   0   0
-6.7869964 1.9294853 -1.3715351   0   0   0
-11.6360989 3.3102391 1.0584193   0   0   0
-8.4256191 2.4001007 -1.3875737   0   0   0
-7.7847199 2.2204740 0.9939663   0   0   0
-11.1095667 3.1709332 -1.4185592   0   0   0
-5.9069114 1.6882024 0.9730224   0   0   0
-12.6824913 3.6294606 -1.1541164   0   0   0
-5.1657863 1.4793142 1.0444884   0   0   0
-12.7019835 3.6422350 -0.6925094   0   0   0
-5.1172042 1.4692681 1.2291325   0   0   0
-12.7021132 3.6494710 -0.2306859   0   0   0
-5.1166506 1.4720094 1.4266106   0   0   0
-4.8570156 1.4101743 -1.3551766   0   0   0
-12.6713829 3.6837754 0.2303369   0   0   0
-5.6490712 1.6433455 -1.3582544   0   0   0
-11.8735676 3.4585810 0.6481285   0   0   0
-6.8038616 1.9844332 -1.3776410   0   0   0
-11.9001875 3.4730957 1.0845661   0   0   0
-8.4052944 2.4562879 -1.3869480   0   0   0
-7.7941928 2.2806582 0.9971350   0   0   0
-11.0724850 3.2420170 -1.4166093   0   0   0
-5.8763275 1.7228125 0.9698937   0   0   0
-12.6460228 3.7123356 -1.1530704   0   0   0
-5.1442957 1.5111221 1.0421988   0   0   0
-12.6500721 3.7207196 -0.6910440   0   0   0
-5.0883913 1.4985601 1.2246336   0   0   0
-12.6501236 3.7279327 -0.2301972   0   0   0
-5.1065125 1.5068030 1.4266106   0   0   0
-4.8637152 1.4490123 -1.3598353   0   0   0
-12.6261940 3.7664316 0.2299878   0   0   0
-5.6486650 1.6860874 -1.3609539   0   0   0
-12.1361761 3.6271787 0.6638293   0   0   0
-6.7710333 2.0262558 -1.3738247   0   0   0
-12.1562233 3.6401050 1.1101898   0   0   0
-8.4257851 2.5262539 -1.3932054   0   0   0
-7.7742786 2.3338745 0.9966475   0   0   0
-11.0838022 3.3295178 -1.4209965   0   0   0
-5.8471317 1.7586740 0.9670779   0   0   0
-12.5854588 3.7901888 -1.1499329   0   0   0
-5.1580572 1.5543629 1.0471598   0   0   0
-12.5931940 3.7997115 -0.6893692   0   0   0
-5.0666127 1.5306655 1.2219341   0   0   0
-12.5950775 3.8074758 -0.2296737   0   0   0
-5.0884728 1.5401776 1.4245400   0   0   0
-4.8423958 1.4795449 -1.3567294   0   0   0
-12.5709085 3.8457117 0.2294642   0   0   0
-5.6553903 1.7311851 -1.3654529   0   0   0
-12.4332771 3.8107276 0.6815188   0   0   0
-6.7905064 2.0838442 -1.3806939   0   0   0
-12.1686068 3.7365789 1.1136761   0   0   0
-8.4268246 2.5908201 -1.3963341   0   0   0
-7.7483096 2.3851717 0.9954288   0   0   0
-11.0906420 3.4161654 -1.4248964   0   0   0
-5.8196106 1.7947942 0.9645749   0   0   0
-12.5986691 3.8903031 -1.1535934   0   0   0
-5.1133165 1.5799025 1.0402906   0   0   0
-12.6121540 3.9017017 -0.6918814   0   0   0
-5.0483575 1.5636932 1.2201345   0   0   0
-12.5796499 3.8988645 -0.2298831   0   0   0
-5.0554557 1.5687933 1.4183284   0   0   0
-4.8466969 1.5179338 -1.3608705   0   0   0
-12.7212067 3.9890230 0.2327104   0   0   0
-5.6375885 1.7688744 -1.3641032   0   0   0
-12.6883764 3.9860263 0.6970103   0   0   0
-6.7870297 2.1347342 -1.3829836   0   0   0
-12.1023140 3.8088794 1.1100155   0   0   0
-8.3934603 2.6448374 -1.3938311   0   0   0
-7.7182174 2.4350257 0.9937226   0   0   0
-11.0438070 3.4863377 -1.4219714   0   0   0
-5.8803964 1.8585963 0.9767768   0   0   0
-13.8647947 4.3875208 -1.2722995   0   0   0
-5.0946755 1.6131908 1.0387641   0   0   0
-13.8697224 4.3970709 -0.7625349   0   0   0
-5.0336027 1.5977199 1.2192347   0   0   0
-12.8913708 4.0943370 -0.2360962   0   0   0
-5.0333343 1.6005361 1.4152225   0   0   0
-4.8323030 1.5505525 -1.3598353   0   0   0
-13.8582115 4.4520531 0.2540721   0   0   0
-5.6195364 1.8063997 -1.3627535   0   0   0
-13.0423851 4.1974978 0.7180493   0   0   0
-6.7607493 2.1784513 -1.3806939   0   0   0
-12.0431919 3.8828824 1.1070522   0   0   0
-8.3559923 2.6973016 -1.3907024   0   0   0
-7.6613631 2.4760296 0.9886041   0   0   0
-11.0456419 3.5719035 -1.4253838   0   0   0
-6.0326591 1.9531478 1.0043093   0   0   0
-13.8186636 4.4792929 -1.2709050   0   0   0
-5.0739522 1.6456902 1.0368561   0   0   0
-13.8291893 4.4907079 -0.7620115   0   0   0
-5.0149131 1.6304117 1.2174351   0   0   0
-13.8360958 4.5009604 -0.2539674   0   0   0
-5.0165272 1.6338413 1.4136696   0   0   0
-4.8378782 1.5896778 -1.3644940   0   0   0
-13.8115969 4.5436931 0.2537929   0   0   0
-5.5956821 1.8419313 -1.3600540   0   0   0
-13.3674850 4.4053488 0.7376230   0   0   0
-6.7677488 2.2329786 -1.3852733   0   0   0
-11.9968710 3.9606185 1.1053091   0   0   0
-8.3707190 2.7667298 -1.3963341   0   0   0
-7.6533136 2.5325735 0.9898228   0   0   0
-11.0468187 3.6576643 -1.4287962   0   0   0
-6.0320020 1.9995667 1.0064993   0   0   0
-13.7662554 4.5687518 -1.2689877   0   0   0
-5.0548863 1.6785978 1.0353296   0   0   0
-13.7671776 4.5770617 -0.7603368   0   0   0
-4.9849186 1.6592281 1.2129360   0   0   0
-13.7929535 4.5936527 -0.2537580   0   0   0
-5.0013332 1.6676010 1.4126344   0   0   0
-4.8306079 1.6238022 -1.3655293   0   0   0
-13.7576065 4.6299458 0.2533740   0   0   0
-5.6162581 1.8911710 -1.3681523   0   0   0
-13.7308512 4.6289468 0.7593947   0   0   0
-6.7300706 2.2714593 -1.3806939   0   0   0
-11.9337692 4.0300741 1.1019973   0   0   0
-8.3516922 2.8236430 -1.3963341   0   0   0
-7.6189747 2.5788808 0.9876292   0   0   0
-11.0216665 3.7327724 -1.4287962   0   0   0
-5.9883194 2.0304296 1.0014935   0   0   0
-13.9650097 4.7404819 -1.2902536   0   0   0
-5.0656509 1.7205429 1.0399090   0   0   0
-13.9909792 4.7574687 -0.7744675   0   0   0
-4.9569063 1.6874685 1.2088870   0   0   0
-13.9260483 4.7435260 -0.2567947   0   0   0
-4.9788957 1.6978639 1.4095285   0   0   0
-4.7862711 1.6461767 -1.3562118   0   0   0
-14.1068792 4.8573880 0.2604248   0   0   0
-5.6287131 1.9392202 -1.3744509   0   0   0
-6.7029147 2.3145435 -1.3784041   0   0   0
-8.3579121 2.8909197 -1.4007142   0   0   0
-7.5895305 2.6281106 0.9861667   0   0   0
-10.9953384 3.8096266 -1.4287962   0   0   0
-5.9683995 2.0702441 1.0005548   0   0   0
-14.1913099 4.9280548 -1.3143086   0   0   0
-5.0368257 1.7500664 1.0364745   0   0   0
-14.2158613 4.9449234 -0.7888075   0   0   0
-4.9450045 1.7220328 1.2088870   0   0   0
-14.1852875 4.9426160 -0.2622049   0   0   0
-4.9505048 1.7268550 1.4048698   0   0   0
-4.8041153 1.6889691 -1.3644940   0   0   0
-14.1847801 4.9924669 0.2624842   0   0   0
-5.6153827 1.9774884 -1.3744509   0   0   0
-14.2063246 5.0084114 0.7894356   0   0   0
-6.7166262 2.3705695 -1.3845100   0   0   0
-11.8357382 4.1796346 1.0981624   0   0   0
-8.3305912 2.9451091 -1.3994627   0   0   0
-7.5639806 2.6770604 0.9851918   0   0   0
-10.9916067 3.8923323 -1.4317211   0   0   0
-5.9523082 2.1101613 1.0002420   0   0   0
-14.1499262 5.0218716 -1.3136114   0   0   0
-5.0118461 1.7797115 1.0338031   0   0   0
-14.1592903 5.0335441 -0.7875515   0   0   0
-4.9331689 1.7556523 1.2088870   0   0   0
-14.1531992 5.0397277 -0.2622399   0   0   0
-4.9313569 1.7579172 1.4027992   0   0   0
-4.7922072 1.7224668 -1.3644940   0   0   0
-14.1138296 5.0785089 0.2618210   0   0   0
-5.5941067 2.0140023 -1.3726513   0   0   0
-14.1541033 5.1013722 0.7884935   0   0   0
-6.7072997 2.4200673 -1.3860365   0   0   0
-11.8175144 4.2662201 1.0992082   0   0   0
-8.3321209 3.0112522 -1.4032172   0   0   0
-7.5115066 2.7176447 0.9808045   0   0   0
-10.9790983 3.9743781 -1.4336710   0   0   0
-5.9337168 2.1503186 0.9996162   0   0   0
-14.0789366 5.1076236 -1.3102994   0   0   0
-4.9919176 1.8119776 1.0322766   0   0   0
-14.0900154 5.1199932 -0.7856674   0   0   0
-4.9134665 1.7873844 1.2070874   0   0   0
-14.0988798 5.1315727 -0.2618908   0   0   0
-4.9153342 1.7909787 1.4017639   0   0   0
-4.7909455 1.7598772 -1.3675998   0   0   0
-14.0592632 5.1700158 0.2614720   0   0   0
-5.5799098 2.0530071 -1.3726513   0   0   0
-14.0787868 5.1855655 0.7862954   0   0   0
-6.7233977 2.4790595 -1.3929057   0   0   0
-10.0789557 3.7183230 0.9398875   0   0   0
-8.3183079 3.0720851 -1.4044687   0   0   0
-7.4793177 2.7651997 0.9790983   0   0   0
-10.9920444 4.0660806 -1.4390332   0   0   0
-5.9148555 2.1903191 0.9989905   0   0   0
-14.0317268 5.2016325 -1.3092536   0   0   0
-4.9938717 1.8522452 1.0353296   0   0   0
-14.0408220 5.2133679 -0.7849347   0   0   0
-4.8844290 1.8155324 1.2030382   0   0   0
-14.0402203 5.2215109 -0.2614720   0   0   0
-4.9027109 1.8252501 1.4017639   0   0   0
-4.7731166 1.7912449 -1.3660469   0   0   0
-14.0153399 5.2652283 0.2613323   0   0   0
-5.5763860 2.0960257 -1.3753507   0   0   0
-14.0254183 5.2773962 0.7853534   0   0   0
-6.6838803 2.5176322 -1.3883263   0   0   0
-10.0341072 3.7815697 0.9381444   0   0   0
-8.3336229 3.1440279 -1.4107260   0   0   0
-7.4598308 2.8173473 0.9790983   0   0   0
-10.9633904 4.1427197 -1.4390332   0   0   0
-5.5021839 2.0812972 0.9317237   0   0   0
-13.9764385 5.2924094 -1.3075105   0   0   0
-4.9661317 1.8814991 1.0322766   0   0   0
-13.9872770 5.3048892 -0.7839926   0   0   0
-4.8625259 1.8461292 1.2007887   0   0   0
-13.9791231 5.3101707 -0.2610182   0   0   0
-4.8826261 1.8566862 1.3996934   0   0   0
-4.7716374 1.8278390 -1.3691528   0   0   0
-13.9530363 5.3504815 0.2608437   0   0   0
-5.5619898 2.1339343 -1.3753507   0   0   0
-13.9761200 5.3677287 0.7846206   0   0   0
-6.6665883 2.5630693 -1.3883263   0   0   0
-9.9932585 3.8440592 0.9367499   0   0   0
-8.2972813 3.1950011 -1.4082230   0   0   0
-7.4238110 2.8616333 0.9769046   0   0   0
-10.9682760 4.2301064 -1.4434205   0   0   0
-5.4878898 2.1187010 0.9317237   0   0   0
-13.9159307 5.3780837 -1.3052444   0   0   0
-4.9660277 1.9202149 1.0349480   0   0   0
-13.9452562 5.3978109 -0.7836786   0   0   0
-4.8498468 1.8791844 1.2007887   0   0   0
-13.9109583 5.3929119 -0.2604248   0   0   0
-4.8554673 1.8842866 1.3955523   0   0   0
-4.7623591 1.8625138 -1.3701880   0   0   0
-13.8836880 5.4353681 0.2602503   0   0   0
-5.5505857 2.1741333 -1.3762505   0   0   0
-13.9215708 5.4586072 0.7836786   0   0   0
-6.6814280 2.6224594 -1.3951954   0   0   0
-9.8790159 3.8795023 0.9285573   0   0   0
-8.2858047 3.2571850 -1.4101002   0   0   0
-7.3962631 2.9104836 0.9759297   0   0   0
-10.9532537 4.3123932 -1.4453704   0   0   0
-5.4619379 2.1526158 0.9298465   0   0   0
-13.8595123 5.4677916 -1.3035012   0   0   0
-4.9269352 1.9447459 1.0296054   0   0   0
-13.8775120 5.4832916 -0.7820039   0   0   0
-4.8293614 1.9101297 1.1989892   0   0   0
-13.8711109 5.4891610 -0.2603899   0   0   0
-4.8350101 1.9152920 1.3934817   0   0   0
-4.7492404 1.8957156 -1.3701880   0   0   0
-13.8286915 5.5254831 0.2599362   0   0   0
-5.5207963 2.2070434 -1.3726513   0   0   0
-13.8627262 5.5475016 0.7825272   0   0   0
-6.6666021 2.6705005 -1.3959587   0   0   0
-9.8960772 3.9661646 0.9327407   0   0   0
-8.2335300 3.3031828 -1.4050944   0   0   0
-7.3555012 2.9539104 0.9732486   0   0   0
-10.9818239 4.4124389 -1.4531701   0   0   0
-5.5878944 2.2474523 0.9539374   0   0   0
-13.8099127 5.5599504 -1.3024554   0   0   0
-4.9095964 1.9776276 1.0288421   0   0   0
-13.8129606 5.5695844 -0.7805384   0   0   0
-4.8159084 1.9437981 1.1989892   0   0   0
-13.8231802 5.5821209 -0.2602154   0   0   0
-4.8215208 1.9489999 1.3934817   0   0   0
-4.7609382 1.9390267 -1.3774350   0   0   0
-13.7749653 5.6158509 0.2596569   0   0   0
-5.5196891 2.2514198 -1.3762505   0   0   0
-13.7959242 5.6328211 0.7809572   0   0   0
-6.6332574 2.7110348 -1.3929057   0   0   0
-9.8404846 4.0238438 0.9301261   0   0   0
-8.2651138 3.3830314 -1.4144804   0   0   0
-7.3181677 2.9984155 0.9710549   0   0   0
-10.9507523 4.4889979 -1.4531701   0   0   0
-5.8096442 2.3838935 0.9946103   0   0   0
-13.7597027 5.6516838 -1.3014096   0   0   0
-4.8956704 2.0118546 1.0288421   0   0   0
-13.7497292 5.6560030 -0.7791777   0   0   0
-4.7860031 1.9706941 1.1949400   0   0   0
-13.7672329 5.6716328 -0.2599012   0   0   0
-4.8042250 1.9811397 1.3924465   0   0   0
-4.7479734 1.9705596 -1.3774350   0   0   0
-13.7281837 5.7032499 0.2594824   0   0   0
-5.5154328 2.2924654 -1.3789500   0   0   0
-13.7416658 5.7172899 0.7800151   0   0   0
-6.6260056 2.7594969 -1.3951954   0   0   0
-9.6885204 4.0369101 0.9182729   0   0   0
-8.3227139 3.4712305 -1.4282466   0   0   0
-7.2907934 3.0438261 0.9700800   0   0   0
-10.9207392 4.5615268 -1.4531701   0   0   0
-5.7663689 2.4109418 0.9899173   0   0   0
-13.6980247 5.7328172 -1.2991436   0   0   0
-4.8840308 2.0450377 1.0292237   0   0   0
-13.7045469 5.7439814 -0.7787590   0   0   0
-4.7656398 1.9993768 1.1931404   0   0   0
-13.7035007 5.7519798 -0.2594126   0   0   0
-4.7874179 2.0114620 1.3914112   0   0   0
-4.7234263 1.9991405 -1.3743291   0   0   0
-13.6714621 5.7919307 0.2591682   0   0   0
-5.5028825 2.3324354 -1.3798498   0   0   0
-13.6903858 5.8084044 0.7793871   0   0   0
-6.6138077 2.8087571 -1.3967218   0   0   0
-9.6454315 4.0982170 0.9168784   0   0   0
-8.2619219 3.5137868 -1.4219893   0   0   0
-7.2657132 3.0930958 0.9695925   0   0   0
-10.9580288 4.6672153 -1.4624321   0   0   0
-5.7439451 2.4488156 0.9889787   0   0   0
-13.6338453 5.8181405 -1.2968775   0   0   0
-4.8660235 2.0775428 1.0284605   0   0   0
-13.6530933 5.8348069 -0.7781310   0   0   0
-4.7515655 2.0325983 1.1931404   0   0   0
-13.6427879 5.8388529 -0.2590286   0   0   0
-4.7501740 2.0349457 1.3846819   0   0   0
-4.7129021 2.0335979 -1.3753644   0   0   0
-13.6086645 5.8777184 0.2587494   0   0   0
-5.4971981 2.3754337 -1.3825492   0   0   0
-13.6385031 5.8990817 0.7787590   0   0   0
-6.6012444 2.8579814 -1.3982483   0   0   0
-9.6824026 4.1939631 0.9231536   0   0   0
-8.2553129 3.5792377 -1.4251180   0   0   0
-7.2348371 3.1397927 0.9683738   0   0   0
-10.8559856 4.7135596 -1.4531701   0   0   0
-5.7267094 2.4888558 0.9889787   0   0   0
-13.6111650 5.9211283 -1.2986206   0   0   0
-4.8388000 2.1059787 1.0257891   0   0   0
-13.6321678 5.9387550 -0.7792824   0   0   0
-4.7372599 2.0657206 1.1931404   0   0   0
-13.6145229 5.9395518 -0.2592730   0   0   0
-4.7376218 2.0688314 1.3851995   0   0   0
-4.7021270 2.0680060 -1.3763996   0   0   0
-5.4733472 2.4106112 -1.3807496   0   0   0
-13.7852259 6.0771351 0.7895402   0   0   0
-6.5811310 2.9039969 -1.3982483   0   0   0
-9.6455975 4.2582378 0.9224564   0   0   0
-8.2301245 3.6367829 -1.4251180   0   0   0
-7.1746168 3.1733620 0.9632553   0   0   0
-10.8881655 4.8181520 -1.4619447   0   0   0
-5.7110009 2.5295749 0.9892915   0   0   0
-15.1286230 6.7072420 -1.4478312   0   0   0
-4.8132119 2.1349323 1.0234995   0   0   0
-4.7120380 2.0939941 1.1904410   0   0   0
-4.7160034 2.0987139 1.3831290   0   0   0
-4.6907339 2.1031811 -1.3774350   0   0   0
-15.1059599 6.7793832 0.2890118   0   0   0
-5.4666238 2.4545047 -1.3834490   0   0   0
-13.7960386 6.2001853 0.7926804   0   0   0
-6.5745058 2.9574590 -1.4013013   0   0   0
-9.6039782 4.3222446 0.9214105   0   0   0
-8.2219000 3.7036960 -1.4282466   0   0   0
-7.1643929 3.2303324 0.9649615   0   0   0
-5.6819510 2.5654993 0.9874144   0   0   0
-15.0711622 6.8112249 -1.4469596   0   0   0
-4.8067560 2.1733642 1.0254076   0   0   0
-15.0771275 6.8234296 -0.8673115   0   0   0
-4.6898327 2.1244423 1.1886414   0   0   0
-15.0791903 6.8338780 -0.2889769   0   0   0
-4.7079020 2.1355991 1.3851995   0   0   0
-4.6759367 2.1358771 -1.3774350   0   0   0
-15.1091852 6.9079580 0.2899892   0   0   0
-5.4528995 2.4942303 -1.3843488   0   0   0
-14.5042324 6.6405563 0.8360146   0   0   0
-6.5536990 3.0032852 -1.4013013   0   0   0
-9.5572691 4.3817139 0.9198417   0   0   0
-8.2102070 3.7675960 -1.4307497   0   0   0
-7.1579018 3.2877274 0.9671551   0   0   0
-10.9307976 5.0229831 -1.4770564   0   0   0
-5.6531343 2.6001513 0.9855371   0   0   0
-15.6639175 7.2112226 -1.5086659   0   0   0
-4.7896829 2.2060471 1.0250260   0   0   0
-4.6748872 2.1571314 1.1886414   0   0   0
-15.2290106 7.0303407 -0.2927816   0   0   0
-4.6858635 2.1651728 1.3831290   0   0   0
-4.6577868 2.1660264 -1.3763996   0   0   0
-15.9519625 7.4249687 0.3071274   0   0   0
-5.4463949 2.5362246 -1.3870482   0   0   0
-14.4243011 6.7230973 0.8340258   0   0   0
-6.5295463 3.0461650 -1.4005380   0   0   0
-9.5037518 4.4357119 0.9175757   0   0   0
-8.1772127 3.8200490 -1.4294982   0   0   0
-7.1299624 3.3338506 0.9664239   0   0   0
-10.8963547 5.0972700 -1.4770564   0   0   0
-5.6281490 2.6352198 0.9842857   0   0   0
-4.7745562 2.2385981 1.0250260   0   0   0
-16.4804993 7.7340651 -0.9540845   0   0   0
-4.6530404 2.1855884 1.1868417   0   0   0
-16.4820671 7.7453341 -0.3178781   0   0   0
-4.6587801 2.1912625 1.3795055   0   0   0
-4.6495357 2.2017980 -1.3784702   0   0   0
-16.7381840 7.9335585 0.3233233   0   0   0
-5.4250345 2.5725157 -1.3861485   0   0   0
-14.3481445 6.8099313 0.8323510   0   0   0
-6.5329475 3.1034689 -1.4058807   0   0   0
-9.4473600 4.4899783 0.9151353   0   0   0
-8.1574802 3.8804376 -1.4307497   0   0   0
-7.0867987 3.3741586 0.9637428   0   0   0
-10.8605042 5.1732159 -1.4770564   0   0   0
-5.6078315 2.6735971 0.9839728   0   0   0
-17.7855167 8.4870672 -1.7241149   0   0   0
-4.7428660 2.2642636 1.0215913   0   0   0
-17.8083115 8.5093956 -1.0343678   0   0   0
-4.6464591 2.2222230 1.1890913   0   0   0
-17.8003178 8.5170269 -0.3444407   0   0   0
-4.6381416 2.2212300 1.3779526   0   0   0
-4.6305709 2.2325261 -1.3774350   0   0   0
-17.7773800 8.5786152 0.3445454   0   0   0
-5.3999233 2.6069376 -1.3843488   0   0   0
-14.2678833 6.8942924 0.8304669   0   0   0
-6.5111222 3.1490016 -1.4058807   0   0   0
-9.4068174 4.5514846 0.9142637   0   0   0
-8.1408577 3.9424584 -1.4326268   0   0   0
-7.0505662 3.4174902 0.9620366   0   0   0
-10.8241234 5.2489100 -1.4770564   0   0   0
-5.5890298 2.7126818 0.9839728   0   0   0
-4.7198801 2.2938869 1.0200648   0   0   0
-4.6220713 2.2503419 1.1868417   0   0   0
-18.4649277 8.9939814 -0.3585073   0   0   0
-4.6190491 2.2518628 1.3769174   0   0   0
-4.6322145 2.2733099 -1.3826114   0   0   0
-18.8926888 9.2799788 0.3674081   0   0   0
-5.3815918 2.6445723 -1.3843488   0   0   0
-14.1763916 6.9725761 0.8279548   0   0   0
-6.4889793 3.1943808 -1.4058807   0   0   0
-9.3712378 4.6152849 0.9139151   0   0   0
-8.1273108 4.0061827 -1.4351298   0   0   0
-7.0176349 3.4622374 0.9608179   0   0   0
-5.5699558 2.7516341 0.9839728   0   0   0
-4.7072701 2.3285227 1.0208281   0   0   0
-19.4722939 9.6407280 -1.1387258   0   0   0
-4.5940256 2.2764981 1.1836925   0   0   0
-19.4211178 9.6280546 -0.3783682   0   0   0
-4.6066766 2.2857721 1.3779526   0   0   0
-4.6200905 2.3065133 -1.3836466   0   0   0
-20.5105724 10.2485523 0.4002186   0   0   0
-5.3774109 2.6881130 -1.3879480   0   0   0
-14.0928793 7.0510364 0.8258614   0   0   0
-6.4635749 3.2367172 -1.4051174   0   0   0
-9.3200111 4.6691484 0.9119977   0   0   0
-8.1316385 4.0773478 -1.4407614   0   0   0
-6.9921317 3.5090339 0.9605742   0   0   0
-10.7507248 5.3976502 -1.4770564   0   0   0
-5.5405068 2.7841618 0.9820956   0   0   0
-4.6930652 2.3613923 1.0212097   0   0   0
-21.0616093 10.6067076 -1.2358613   0   0   0
-4.5697231 2.3033299 1.1814430   0   0   0
-20.9496098 10.5640583 -0.4095382   0   0   0
-4.5858374 2.3144643 1.3763996   0   0   0
-4.6038752 2.3387110 -1.3836466   0   0   0
-5.3654613 2.7291226 -1.3897476   0   0   0
-14.0237322 7.1392832 0.8247100   0   0   0
-6.4408212 3.2817624 -1.4051174   0   0   0
-9.2410355 4.7105746 0.9074656   0   0   0
-8.1276093 4.1465859 -1.4451416   0   0   0
-6.9674635 3.5577621 0.9605742   0   0   0
-5.5156584 2.8200760 0.9811569   0   0   0
-23.2213764 11.8983259 -1.3674339   0   0   0
-4.5569997 2.3369548 1.1823428   0   0   0
-23.2167740 11.9113197 -0.4554729   0   0   0
-4.5575380 2.3402457 1.3727763   0   0   0
-4.5702739 2.3619256 -1.3784702   0   0   0
-23.2179985 12.0093737 0.4562757   0   0   0
-5.3445473 2.7656181 -1.3892977   0   0   0
-13.9575872 7.2287459 0.8237680   0   0   0
-6.4212394 3.3284543 -1.4058807   0   0   0
-9.1990814 4.7703876 0.9065940   0   0   0
-8.0774231 4.1923060 -1.4413872   0   0   0
-6.9406943 3.6054022 0.9603304   0   0   0
-5.4940839 2.8576019 0.9808441   0   0   0
-24.6130791 12.8291416 -1.4546256   0   0   0
-4.5336623 2.3651061 1.1805432   0   0   0
-4.5325274 2.3675339 1.3701880   0   0   0
-4.5810328 2.4081566 -1.3867525   0   0   0
-25.9208794 13.6376343 0.5112508   0   0   0
-5.3320074 2.8064930 -1.3910973   0   0   0
-13.8820419 7.3129792 0.8223025   0   0   0
-6.4047928 3.3768642 -1.4074072   0   0   0
-9.1620293 4.8326335 0.9062454   0   0   0
-8.0724154 4.2615051 -1.4457673   0   0   0
-6.9048243 3.6482050 0.9588680   0   0   0
-5.4652696 2.8912692 0.9792798   0   0   0
-4.6165590 2.4453740 1.0154855   0   0   0
-26.9086800 14.2654572 -1.5961419   0   0   0
-4.5204835 2.3985260 1.1814430   0   0   0
-26.2963943 13.9585009 -0.5196629   0   0   0
-4.5227127 2.4027443 1.3722585   0   0   0
-4.5607018 2.4382577 -1.3857172   0   0   0
-27.4859390 14.7069635 0.5441311   0   0   0
-5.2985396 2.8362913 -1.3874981   0   0   0
-13.8218479 7.4049988 0.8217792   0   0   0
-6.3983641 3.4307728 -1.4112233   0   0   0
-9.1017323 4.8823514 0.9036307   0   0   0
-8.0424681 4.3177571 -1.4457673   0   0   0
-6.8756895 3.6944413 0.9583805   0   0   0
-5.4536500 2.9340327 0.9808441   0   0   0
-4.6114740 2.4840612 1.0181568   0   0   0
-4.4916234 2.4235485 1.1782936   0   0   0
-28.7076283 15.4962654 -0.5694371   0   0   0
-4.5058284 2.4342599 1.3722585   0   0   0
-4.5469632 2.4718831 -1.3867525   0   0   0
-27.7145805 15.0791197 0.5507281   0   0   0
-5.2991490 2.8843925 -1.3928969   0   0   0
-13.7750759 7.5041790 0.8220932   0   0   0
-6.3673620 3.4715986 -1.4096968   0   0   0
-8.0121288 4.3737984 -1.4457673   0   0   0
-6.8601823 3.7480628 0.9598429   0   0   0
-5.4243684 2.9672945 0.9792798   0   0   0
-4.5871320 2.5124221 1.0166303   0   0   0
-4.4728861 2.4539094 1.1778437   0   0   0
-4.5344410 2.4907694 1.3862348   0   0   0
-4.5266504 2.5009074 -1.3857172   0   0   0
-27.4380512 15.1716204 0.5472726   0   0   0
-5.2964454 2.9298284 -1.3973960   0   0   0
-13.6328163 7.5474648 0.8166503   0   0   0
-6.3401499 3.5129561 -1.4089336   0   0   0
-7.8451090 4.3486147 0.7847503   0   0   0
-7.9718080 4.4224834 -1.4438901   0   0   0
-6.8223629 3.7879262 0.9581368   0   0   0
-5.3936863 2.9983892 0.9774025   0   0   0
-4.5647783 2.5407228 1.0154855   0   0   0
-4.4594836 2.4861960 1.1787435   0   0   0
-4.4684634 2.4942703 1.3712233   0   0   0
-4.5023432 2.5286641 -1.3836466   0   0   0
-27.2216434 15.3010731 0.5450736   0   0   0
-5.2656708 2.9610019 -1.3946966   0   0   0
-13.5571661 7.6297207 0.8152895   0   0   0
-6.3394189 3.5706213 -1.4142762   0   0   0
-7.8110871 4.4013214 0.7844017   0   0   0
-7.9923582 4.5071387 -1.4532762   0   0   0
-6.7940230 3.8344870 0.9578930   0   0   0
-5.3726220 3.0359709 0.9774025   0   0   0
-4.5281334 2.5618947 1.0112877   0   0   0
-4.4420180 2.5172682 1.1787435   0   0   0
-43.2896042 24.5419750 -0.8686063   0   0   0
-4.4744649 2.5387518 1.3784702   0   0   0
-4.5013576 2.5696120 -1.3888230   0   0   0
-27.0186634 15.4361830 0.5431538   0   0   0
-5.2313356 2.9899547 -1.3910973   0   0   0
-13.4792986 7.7102976 0.8138241   0   0   0
-6.3007064 3.6069882 -1.4112233   0   0   0
-7.7767124 4.4537649 0.7840531   0   0   0
-7.9332767 4.5471087 -1.4482703   0   0   0
-6.7567568 3.8758979 0.9564306   0   0   0
-10.6058750 6.0863390 -1.5014303   0   0   0
-5.3512964 3.0734046 0.9774025   0   0   0
-4.5101380 2.5934443 1.0112877   0   0   0
-4.4243360 2.5482178 1.1787435   0   0   0
-43.1102867 24.8395996 -0.8684667   0   0   0
-4.4532852 2.5679972 1.3774350   0   0   0
-4.4833088 2.6009746 -1.3888230   0   0   0
-26.7926445 15.5561533 0.5407802   0   0   0
-5.2170753 3.0303183 -1.3928969   0   0   0
-13.3923359 7.7851405 0.8118353   0   0   0
-6.2923412 3.6607599 -1.4150395   0   0   0
-7.7540398 4.5129590 0.7849246   0   0   0
-7.9286494 4.6182899 -1.4532762   0   0   0
-6.7243886 3.9199748 0.9556994   0   0   0
-10.5185413 6.1342320 -1.4950931   0   0   0
-5.3245916 3.1077013 0.9764639   0   0   0
-4.4919224 2.6248677 1.0112877   0   0   0
-4.3929839 2.5711682 1.1751443   0   0   0
-46.3232689 27.1233883 -0.9369848   0   0   0
-4.4402490 2.6019542 1.3789879   0   0   0
-4.4655008 2.6314309 -1.3888230   0   0   0
-26.5104465 15.6345491 0.5372200   0   0   0
-5.2097549 3.0736814 -1.3964962   0   0   0
-13.3201160 7.8649483 0.8106840   0   0   0
-6.2672777 3.7035053 -1.4150395   0   0   0
-7.7179961 4.5625920 0.7844017   0   0   0
-7.8970304 4.6721516 -1.4532762   0   0   0
-6.6975503 3.9656551 0.9556994   0   0   0
-10.5209503 6.2319908 -1.5014303   0   0   0
-5.2931194 3.1378284 0.9745867   0   0   0
-4.4773283 2.6573861 1.0120509   0   0   0
-4.3720303 2.5990188 1.1742445   0   0   0
-42.7619896 25.4306068 -0.8684317   0   0   0
-4.4503365 2.6645265 -1.3898582   0   0   0
-26.3028774 15.7606583 0.5352304   0   0   0
-5.2249417 3.1320193 -1.4063940   0   0   0
-13.2546072 7.9515829 0.8100559   0   0   0
-6.2412696 3.7471685 -1.4150395   0   0   0
-8.8268929 5.3016357 0.9008418   0   0   0
-7.8642206 4.7271686 -1.4532762   0   0   0
-6.6697021 4.0123158 0.9556994   0   0   0
-5.2693925 3.1736853 0.9742739   0   0   0
-4.4569860 2.6875648 1.0116693   0   0   0
-4.3604522 2.6335077 1.1760441   0   0   0
-42.5765648 25.7243824 -0.8682922   0   0   0
-4.3775020 2.6469340 1.3707056   0   0   0
-4.4287953 2.6927497 -1.3888230   0   0   0
-26.1061592 15.8852777 0.5334154   0   0   0
-5.1668806 3.1452193 -1.3964962   0   0   0
-13.1865311 8.0333061 0.8092185   0   0   0
-6.2323818 3.7997844 -1.4188557   0   0   0
-8.7854986 5.3584828 0.9003188   0   0   0
-7.8150010 4.7702971 -1.4501475   0   0   0
-6.6371546 4.0545173 0.9549682   0   0   0
-10.4950037 6.4137225 -1.5102049   0   0   0
-5.2459826 3.2084486 0.9739610   0   0   0
-4.4318919 2.7137394 1.0101428   0   0   0
-4.3457479 2.6651647 1.1769439   0   0   0
-42.3953629 26.0104561 -0.8681874   0   0   0
-4.3495054 2.6706042 1.3675998   0   0   0
-4.4098883 2.7236025 -1.3888230   0   0   0
-25.9010677 16.0093193 0.5314956   0   0   0
-5.1497698 3.1842887 -1.3978459   0   0   0
-13.1063499 8.1104555 0.8077531   0   0   0
-6.2123790 3.8473363 -1.4203821   0   0   0
-8.7529564 5.4228339 0.9008418   0   0   0
-7.7982965 4.8351488 -1.4532762   0   0   0
-6.6019402 4.0965676 0.9539932   0   0   0
-5.2284899 3.2481210 0.9748996   0   0   0
-4.4028358 2.7383921 1.0078532   0   0   0
-4.3303437 2.6974993 1.1778437   0   0   0
-4.3340340 2.7029488 1.3686351   0   0   0
-4.3935585 2.7571428 -1.3898582   0   0   0
-25.6944008 16.1368217 0.5296108   0   0   0
-5.1285019 3.2220945 -1.3982958   0   0   0
-13.0243063 8.1891508 0.8062878   0   0   0
-6.2046289 3.9042394 -1.4249616   0   0   0
-8.7156143 5.4863911 0.9010161   0   0   0
-7.7634974 4.8908277 -1.4532762   0   0   0
-6.5774946 4.1468806 0.9547244   0   0   0
-5.2017722 3.2833431 0.9742739   0   0   0
-4.3864470 2.7719254 1.0086163   0   0   0
-4.2977571 2.7200799 1.1742445   0   0   0
-4.3162131 2.7349272 1.3691528   0   0   0
-4.3807197 2.7919014 -1.3919288   0   0   0
-13.8400717 8.8272896 0.2865336   0   0   0
-5.1206679 3.2672534 -1.4023448   0   0   0
-12.9567184 8.2734280 0.8056597   0   0   0
-6.1805301 3.9495747 -1.4257249   0   0   0
-8.6687059 5.5417376 0.9001445   0   0   0
-7.7291641 4.9449077 -1.4532762   0   0   0
-6.5450406 4.1905580 0.9542370   0   0   0
-12.3865461 7.9337168 -1.8061037   0   0   0
-5.1687450 3.3131819 0.9723966   0   0   0
-12.3040962 7.8930254 -1.2789234   0   0   0
-4.3752503 2.8077824 1.0105244   0   0   0
-12.3132191 7.9079814 -0.7669311   0   0   0
-4.2803020 2.7510710 1.1746944   0   0   0
-12.2870874 7.9002891 -0.2549797   0   0   0
-4.2986393 2.7660384 1.3696704   0   0   0
-4.3681026 2.8258524 -1.3939993   0   0   0
-12.2890654 7.9562392 0.2555381   0   0   0
-5.1130309 3.3115668 -1.4063940   0   0   0
-12.3051262 7.9757843 0.7685012   0   0   0
-6.1535034 3.9915526 -1.4257249   0   0   0
-8.6140709 5.5897694 0.8984014   0   0   0
-7.7284603 5.0189209 -1.4595336   0   0   0
-6.5196939 4.2371750 0.9547244   0   0   0
-5.1344833 3.3407464 0.9702066   0   0   0
-12.2567635 7.9809422 -1.2796206   0   0   0
-4.3478117 2.8321407 1.0086163   0   0   0
-12.2607794 7.9927015 -0.7670358   0   0   0
-4.2680054 2.7844012 1.1764940   0   0   0
-12.2564726 7.9990416 -0.2554683   0   0   0
-4.2700071 2.7888956 1.3665645   0   0   0
-4.3418097 2.8520358 -1.3919288   0   0   0
-12.2265368 8.0374451 0.2553985   0   0   0
-5.0979285 3.3525355 -1.4086435   0   0   0
-12.2508135 8.0625935 0.7686058   0   0   0
