-0.939802 -2.722092 -13.526656
-0.934722 -2.566785 -13.453546
-1.00457 -3.567419 -14.458874
-0.931017 -2.449522 -13.400209
-0.928393 -2.322145 -13.362452
-0.973284 -3.301307 -14.008559
-0.96468 -3.186773 -13.884729
-0.926022 -2.206969 -13.328312
-0.924451 -2.085989 -13.305709
-0.953448 -3.017504 -13.723058
-0.947836 -2.89911 -13.64229
-0.96244 -1.661023 -13.273389
-0.962551 -1.593198 -13.274929
-1.047522 0.084153 -14.446786
-1.065602 0.169941 -14.696136
-0.962773 -1.514645 -13.277981
-0.964027 -1.423972 -13.29528
-0.963571 -1.99798 -13.288997
-0.962688 -1.909072 -13.27681
-0.96484 -1.365175 -13.306498
-0.966026 -1.279475 -13.322845
-0.962154 -1.834585 -13.269452
-0.962279 -1.758664 -13.271175
-0.982131 -0.723383 -13.544956
-0.984904 -0.658612 -13.583196
-0.967426 -1.182887 -13.342157
-0.969015 -1.124572 -13.364072
-0.988742 -0.568952 -13.636131
-0.99254 -0.506611 -13.688516
-0.971263 -1.042076 -13.395077
-0.973522 -0.959195 -13.426221
-0.998137 -0.416365 -13.765697
-1.002246 -0.350089 -13.822377
-0.975351 -0.892074 -13.451446
-0.978458 -0.80918 -13.494301
-1.010617 -0.241606 -13.937823
-1.016947 -0.171257 -14.025122
-1.024901 -0.085688 -14.13482
-1.034518 -0.010464 -14.267441
-0.980546 -2.721959 -13.523102
-0.975247 -2.566661 -13.450016
-1.046023 -3.560098 -14.426113
-0.971333 -2.449285 -13.396044
-0.968597 -2.321921 -13.3583
-1.015823 -3.302264 -14.009619
-1.006667 -3.187137 -13.883345
-0.966122 -2.206757 -13.324175
-0.964443 -2.085701 -13.301022
-0.994894 -3.017692 -13.720971
-0.988992 -2.899156 -13.639586
-1.002298 -1.660742 -13.268182
-1.002414 -1.592928 -13.269718
-1.090482 0.084106 -14.43554
-1.109621 0.169896 -14.688899
-1.002603 -1.514325 -13.272217
-1.003909 -1.423671 -13.289503
-1.003518 -1.997723 -13.284323
-1.002597 -1.908827 -13.272141
-1.004756 -1.364887 -13.300716
-1.00599 -1.279204 -13.317056
-1.002001 -1.834275 -13.264246
-1.002131 -1.758367 -13.265967
-1.022656 -0.723156 -13.53767
-1.025542 -0.658404 -13.575879
-1.007402 -1.182582 -13.335745
-1.009057 -1.124283 -13.357647
-1.029538 -0.568772 -13.628769
-1.033423 -0.506417 -13.680199
-1.011397 -1.041806 -13.388623
-1.013748 -0.958946 -13.419747
-1.039247 -0.416204 -13.757299
-1.043701 -0.350012 -13.816255
-1.015652 -0.891843 -13.444953
-1.018833 -0.808926 -13.487061
-1.052582 -0.241591 -13.93383
-1.059202 -0.171251 -14.021456
-1.067256 -0.085666 -14.12807
-1.077229 -0.010461 -14.260095
-1.021288 -2.721854 -13.519563
-1.015769 -2.566563 -13.446498
-1.089247 -3.559183 -14.419186
-1.011643 -2.449072 -13.391885
-1.008793 -2.321719 -13.354156
-1.058392 -3.303265 -14.010736
-1.048667 -3.187539 -13.881993
-1.006216 -2.206565 -13.320045
-1.004425 -2.085432 -13.29634
-1.0364 -3.018067 -13.719617
-1.030152 -2.899234 -13.636908
-1.042144 -1.660476 -13.262976
-1.042264 -1.592673 -13.264512
-1.134274 0.084125 -14.435483
-1.15362 0.169852 -14.681696
-1.042417 -1.514019 -13.266453
-1.043774 -1.423383 -13.283729
-1.043454 -1.997484 -13.279651
-1.042497 -1.908599 -13.267474
-1.044654 -1.36461 -13.29493
-1.045938 -1.278945 -13.311259
-1.041835 -1.833981 -13.259041
-1.04197 -1.758085 -13.260763
-1.063156 -0.722935 -13.530386
-1.066155 -0.658202 -13.568561
-1.047385 -1.182319 -13.329678
-1.049077 -1.124002 -13.351214
-1.070408 -0.56865 -13.622687
-1.074546 -0.506355 -13.675348
-1.051509 -1.041546 -13.382173
-1.053953 -0.958706 -13.413272
-1.080871 -0.416256 -13.755837
-1.085517 -0.350061 -13.814973
-1.055932 -0.891619 -13.438457
-1.059182 -0.80868 -13.479816
-1.09457 -0.241584 -13.930188
-1.101453 -0.171246 -14.017785
-1.109828 -0.085664 -14.124372
-1.120212 -0.010461 -14.256527
-1.062028 -2.721777 -13.516037
-1.056288 -2.56649 -13.442992
-1.133613 -3.561956 -14.427065
-1.051946 -2.448881 -13.387731
-1.048983 -2.321539 -13.35002
-1.100992 -3.304312 -14.011918
-1.09068 -3.187978 -13.88068
-1.046304 -2.206395 -13.315921
-1.044398 -2.085184 -13.291665
-1.077921 -3.018479 -13.718296
-1.071317 -2.899342 -13.634248
-1.081973 -1.660226 -13.25777
-1.082098 -1.592432 -13.259303
-1.178269 0.084159 -14.437711
-1.197593 0.16981 -14.674498
-1.082244 -1.513773 -13.261088
-1.083621 -1.423108 -13.277955
-1.083378 -1.997265 -13.274981
-1.082385 -1.908389 -13.262811
-1.084534 -1.364346 -13.28915
-1.085866 -1.278697 -13.305469
-1.081653 -1.833705 -13.253841
-1.081793 -1.75782 -13.255559
-1.103896 -0.722896 -13.526392
-1.107206 -0.658284 -13.56696
-1.087368 -1.18209 -13.323873
-1.089075 -1.123732 -13.344785
-1.111792 -0.568806 -13.623142
-1.115947 -0.506429 -13.674058
-1.091599 -1.041295 -13.375719
-1.094136 -0.958475 -13.406797
-1.122516 -0.416318 -13.754552
-1.127342 -0.350113 -13.813691
-1.09619 -0.891404 -13.431967
-1.099511 -0.808446 -13.472671
-1.136552 -0.241579 -13.92654
-1.143699 -0.171242 -14.014117
-1.152645 -0.085681 -14.123727
-1.163223 -0.010461 -14.253345
-1.102764 -2.721726 -13.512521
-1.096804 -2.566442 -13.439497
-1.178054 -3.564796 -14.435082
-1.09229 -2.448824 -13.384187
-1.089165 -2.321382 -13.345892
-1.143621 -3.305402 -14.013155
-1.132705 -3.188454 -13.879401
-1.086383 -2.206245 -13.311803
-1.084358 -2.084954 -13.28699
-1.119452 -3.018923 -13.717005
-1.112482 -2.899481 -13.631608
-1.121795 -1.65999 -13.252566
-1.121925 -1.592207 -13.254102
-1.222415 0.0842 -14.441272
-1.241549 0.169769 -14.667312
-1.122075 -1.513558 -13.255883
-1.123455 -1.422846 -13.27218
-1.123297 -1.997064 -13.270316
-1.122267 -1.908197 -13.258152
-1.124402 -1.364094 -13.283367
-1.125782 -1.278461 -13.299676
-1.121462 -1.833444 -13.248638
-1.121607 -1.757571 -13.250356
-1.145009 -0.7231 -13.526814
-1.148444 -0.65847 -13.567396
-1.127339 -1.181871 -13.318068
-1.129056 -1.123473 -13.338354
-1.153202 -0.568968 -13.623599
-1.157363 -0.506508 -13.672762
-1.131673 -1.041054 -13.369267
-1.134541 -0.958454 -13.403151
-1.164177 -0.416383 -13.753263
-1.169183 -0.350168 -13.812407
-1.136875 -0.891545 -13.430725
-1.14046 -0.808674 -13.473079
-1.178536 -0.241576 -13.922893
-1.18609 -0.171261 -14.012133
-1.195697 -0.085714 -14.125631
-1.206465 -0.010464 -14.252841
-1.143503 -2.721704 -13.509022
-1.137323 -2.566421 -13.436017
-1.222582 -3.567706 -14.443244
-1.132642 -2.448804 -13.380719
-1.129346 -2.321247 -13.341771
-1.186287 -3.306538 -14.014457
-1.174749 -3.188968 -13.878157
-1.126461 -2.206117 -13.307693
-1.124313 -2.084744 -13.282321
-1.161002 -3.019404 -13.715751
-1.153658 -2.899651 -13.62899
-1.161605 -1.65977 -13.247362
-1.161739 -1.591995 -13.248898
-1.266946 0.084266 -14.44871
-1.28756 0.170004 -14.683799
-1.161896 -1.513357 -13.25068
-1.163274 -1.422596 -13.266403
-1.163209 -1.996881 -13.265655
-1.162142 -1.908022 -13.253494
-1.164255 -1.363855 -13.277584
-1.165684 -1.278236 -13.29388
-1.16126 -1.833201 -13.243435
-1.161411 -1.757337 -13.245155
-1.186145 -0.72331 -13.527234
-1.189705 -0.658662 -13.567831
-1.167584 -1.181955 -13.315557
-1.169467 -1.123653 -13.33703
-1.194635 -0.569135 -13.624051
-1.198792 -0.506592 -13.671462
-1.172438 -1.041453 -13.37091
-1.175424 -0.958833 -13.404964
-1.205851 -0.416452 -13.751967
-1.211038 -0.350226 -13.811117
-1.177843 -0.891898 -13.432552
-1.181432 -0.808908 -13.47348
-1.22065 -0.241601 -13.920733
-1.228826 -0.171328 -14.013977
-1.23881 -0.085749 -14.127839
-1.249764 -0.010466 -14.252765
-1.184243 -2.721709 -13.505535
-1.177843 -2.566425 -13.432547
-1.267195 -3.570686 -14.45155
-1.172995 -2.448808 -13.377264
-1.169522 -2.321134 -13.337652
-1.228987 -3.307718 -14.015817
-1.216811 -3.189519 -13.876948
-1.166535 -2.206011 -13.303592
-1.164261 -2.084553 -13.277656
-1.202569 -3.01992 -13.714527
-1.19484 -2.899852 -13.626393
-1.201402 -1.659564 -13.242162
-1.201541 -1.591798 -13.243694
-1.311574 0.084334 -14.456511
-1.333876 0.170264 -14.702334
-1.201775 -1.513261 -13.246278
-1.203423 -1.422768 -13.264442
-1.203111 -1.996717 -13.260998
-1.202008 -1.907866 -13.248842
-1.204621 -1.364228 -13.277641
-1.206367 -1.278869 -13.296886
-1.201079 -1.833025 -13.238604
-1.201201 -1.75712 -13.239954
-1.227303 -0.723527 -13.527648
-1.230987 -0.65886 -13.568261
-1.208337 -1.182544 -13.318605
-1.21017 -1.124105 -13.338805
-1.236089 -0.569307 -13.624499
-1.240232 -0.50668 -13.670161
-1.213245 -1.041873 -13.372703
-1.216336 -0.959221 -13.406776
-1.247537 -0.416525 -13.750673
-1.252903 -0.350288 -13.809823
-1.218841 -0.892259 -13.434378
-1.222424 -0.80915 -13.47388
-1.263128 -0.241698 -13.922526
-1.271592 -0.171397 -14.01582
-1.282286 -0.085808 -14.133693
-1.293153 -0.01047 -14.253467
-1.225009 -2.721802 -13.502363
-1.218361 -2.566456 -13.429091
-1.31189 -3.573733 -14.459994
-1.213346 -2.448836 -13.373821
-1.209692 -2.321043 -13.333545
-1.271721 -3.308944 -14.01724
-1.258886 -3.190107 -13.875773
-1.206603 -2.205925 -13.299497
-1.204198 -2.084381 -13.272989
-1.244149 -3.020471 -13.713339
-1.236027 -2.900084 -13.623816
-1.241706 -1.660061 -13.242443
-1.242056 -1.592539 -13.246174
-1.356278 0.084403 -14.464322
-1.380502 0.170547 -14.722657
-1.242462 -1.514166 -13.250505
-1.244051 -1.423487 -13.267451
-1.24301 -1.996571 -13.256342
-1.24187 -1.907727 -13.244192
-1.24529 -1.364918 -13.280662
-1.247096 -1.279517 -13.29992
-1.240911 -1.832891 -13.233957
-1.241203 -1.757227 -13.237078
-1.268488 -0.72375 -13.528062
-1.272297 -0.659064 -13.568686
-1.249134 -1.183144 -13.321656
-1.250908 -1.124567 -13.340576
-1.277572 -0.569484 -13.624944
-1.281689 -0.506772 -13.668851
-1.254088 -1.042302 -13.374494
-1.257285 -0.959617 -13.408583
-1.289301 -0.416621 -13.75003
-1.295329 -0.350499 -13.814314
-1.259874 -0.892628 -13.436201
-1.263444 -0.809398 -13.474275
-1.305644 -0.241796 -13.924317
-1.314503 -0.171481 -14.018799
-1.325836 -0.085868 -14.139668
-1.33667 -0.010474 -14.255207
-1.26584 -2.722046 -13.499819
-1.258884 -2.566511 -13.425644
-1.356678 -3.576852 -14.468586
-1.253703 -2.448889 -13.370389
-1.249864 -2.320975 -13.329443
-1.314496 -3.310215 -14.018723
-1.300985 -3.190733 -13.874635
-1.246672 -2.20586 -13.295406
-1.244134 -2.084229 -13.26833
-1.285752 -3.021056 -13.712183
-1.277227 -2.900347 -13.621262
-1.282417 -1.661069 -13.246671
-1.282779 -1.593506 -13.250404
-1.40153 0.084501 -14.477037
-1.427513 0.17086 -14.745426
-1.283198 -1.515085 -13.254739
-1.284721 -1.424219 -13.270461
-1.283397 -1.997213 -13.256789
-1.282479 -1.908724 -13.247304
-1.286 -1.36562 -13.283679
-1.287866 -1.280177 -13.302956
-1.281705 -1.83416 -13.239313
-1.281897 -1.758292 -13.241297
-1.309698 -0.72398 -13.52847
-1.313633 -0.659274 -13.569109
-1.289972 -1.183755 -13.324705
-1.29168 -1.125039 -13.342346
-1.319081 -0.569666 -13.625387
-1.32317 -0.506872 -13.667624
-1.294965 -1.042741 -13.376283
-1.298267 -0.960022 -13.41039
-1.331642 -0.416896 -13.755132
-1.337871 -0.350731 -13.819481
-1.300943 -0.893006 -13.438025
-1.304489 -0.809654 -13.474664
-1.348194 -0.241897 -13.926107
-1.357722 -0.1716 -14.024531
-1.369591 -0.085938 -14.147126
-1.38072 -0.010482 -14.262085
-1.30668 -2.722319 -13.497293
-1.299411 -2.566592 -13.42221
-1.401558 -3.580041 -14.477325
-1.294063 -2.448966 -13.366967
-1.290034 -2.320929 -13.325351
-1.35731 -3.311531 -14.020267
-1.343104 -3.191396 -13.873531
-1.28674 -2.205816 -13.291323
-1.284302 -2.084485 -13.266141
-1.327375 -3.021677 -13.711057
-1.318436 -2.90064 -13.618726
-1.323178 -1.662092 -13.250898
-1.323551 -1.594487 -13.254637
-1.44689 0.084601 -14.48981
-1.474697 0.171176 -14.768283
-1.323985 -1.516019 -13.258978
-1.325432 -1.424965 -13.273471
-1.324316 -1.998634 -13.262294
-1.323367 -1.910081 -13.252796
-1.326753 -1.366336 -13.286701
-1.328679 -1.280848 -13.305989
-1.322568 -1.835464 -13.244797
-1.322641 -1.759375 -13.245521
-1.350936 -0.724217 -13.528877
-1.354995 -0.65949 -13.56953
-1.330853 -1.184377 -13.327757
-1.332485 -1.125522 -13.34411
-1.360883 -0.569965 -13.628498
-1.365291 -0.507209 -13.672638
-1.335876 -1.043189 -13.378067
-1.339284 -0.960436 -13.412196
-1.374038 -0.417174 -13.760239
-1.380471 -0.350967 -13.824656
-1.342045 -0.893392 -13.439846
-1.345561 -0.809918 -13.47505
-1.391435 -0.242113 -13.934457
-1.401003 -0.171722 -14.030272
-1.413417 -0.086009 -14.154593
-1.425338 -0.010494 -14.273978
-1.347531 -2.72262 -13.494786
-1.340072 -2.566947 -13.420088
-1.44653 -3.583299 -14.486206
-1.334828 -2.449802 -13.367567
-1.330902 -2.322124 -13.328255
-1.400164 -3.312893 -14.021873
-1.385244 -3.192097 -13.872462
-1.327814 -2.207467 -13.297323
-1.325251 -2.08597 -13.271658
-1.369018 -3.022332 -13.709967
-1.359656 -2.900964 -13.616211
-1.363986 -1.663131 -13.255134
-1.364371 -1.595485 -13.258875
-1.492355 0.084702 -14.502614
-1.522054 0.171494 -14.791229
-1.364818 -1.516967 -13.263218
-1.366183 -1.425724 -13.276482
-1.36529 -2.000077 -13.267807
-1.364312 -1.911459 -13.258302
-1.367545 -1.367064 -13.28972
-1.369531 -1.281532 -13.309025
-1.363488 -1.836788 -13.250295
-1.363432 -1.760475 -13.24975
-1.392196 -0.72446 -13.529278
-1.396734 -0.659879 -13.573379
-1.371773 -1.185011 -13.330808
-1.373324 -1.126015 -13.345878
-1.40319 -0.570458 -13.636124
-1.407726 -0.507644 -13.6802
-1.376819 -1.043648 -13.379852
-1.380333 -0.960859 -13.413999
-1.416488 -0.417457 -13.765347
-1.423123 -0.351205 -13.82983
-1.38318 -0.893786 -13.441667
-1.386727 -0.81023 -13.476128
-1.434926 -0.242362 -13.944523
-1.444476 -0.171861 -14.037333
-1.457704 -0.086104 -14.165882
-1.47067 -0.01051 -14.291887
-1.38955 -2.725225 -13.503569
-1.381865 -2.569415 -13.428883
-1.513001 -3.638101 -14.703254
-1.376451 -2.452147 -13.376274
-1.372228 -2.324049 -13.335231
-1.444123 -3.316748 -14.033898
-1.428137 -3.194474 -13.878549
-1.369041 -2.209293 -13.304258
-1.366255 -2.087476 -13.277184
-1.411505 -3.024791 -13.716924
-1.401748 -2.903108 -13.622108
-1.404848 -1.664187 -13.259373
-1.405245 -1.596498 -13.263116
-1.538096 0.084812 -14.517004
-1.570953 0.171964 -14.827118
-1.405706 -1.517931 -13.267465
-1.40698 -1.426496 -13.279492
-1.406327 -2.00154 -13.273335
-1.405319 -1.912857 -13.263817
-1.408384 -1.367806 -13.292742
-1.410431 -1.282228 -13.31206
-1.404469 -1.838129 -13.255797
-1.404277 -1.761592 -13.253983
-1.434114 -0.725026 -13.535587
-1.438917 -0.660454 -13.580925
-1.41274 -1.185655 -13.33386
-1.4142 -1.126519 -13.347639
-1.445574 -0.570958 -13.643758
-1.450251 -0.50809 -13.687897
-1.417802 -1.044115 -13.381632
-1.421422 -0.961291 -13.4158
-1.458998 -0.417743 -13.770458
-1.466336 -0.351567 -13.839709
-1.424355 -0.894189 -13.443483
-1.428008 -0.810596 -13.477965
-1.478541 -0.242619 -13.954904
-1.48805 -0.172004 -14.044654
-1.502136 -0.086202 -14.177597
-1.516269 -0.010527 -14.310991
-1.431917 -2.728363 -13.514858
-1.423743 -2.571913 -13.437704
-1.41816 -2.454522 -13.385011
-1.413627 -2.326001 -13.342228
-1.489391 -3.323327 -14.05731
-1.472131 -3.199132 -13.89441
-1.410341 -2.211144 -13.311212
-1.407322 -2.089005 -13.282721
-1.454962 -3.02915 -13.732366
-1.444502 -2.906481 -13.633636
-1.445763 -1.665259 -13.263615
-1.446172 -1.597527 -13.267365
-1.585666 0.085016 -14.547102
-1.62544 0.173005 -14.911992
-1.446646 -1.518909 -13.271714
-1.447822 -1.427283 -13.282504
-1.447425 -2.003024 -13.278869
-1.446387 -1.914274 -13.269341
-1.449267 -1.36856 -13.295762
-1.451374 -1.282936 -13.315096
-1.445512 -1.83949 -13.261312
-1.445175 -1.762727 -13.258223
-1.476225 -0.725662 -13.543078
-1.481174 -0.661035 -13.588479
-1.453753 -1.186311 -13.336915
-1.45521 -1.127107 -13.350285
-1.488033 -0.571463 -13.651404
-1.492851 -0.508541 -13.695606
-1.458821 -1.044593 -13.383412
-1.462548 -0.961732 -13.4176
-1.502019 -0.41816 -13.779717
-1.509638 -0.351932 -13.84961
-1.465824 -0.894757 -13.447661
-1.470171 -0.811435 -13.487543
-1.522431 -0.242908 -13.966982
-1.531785 -0.17216 -14.052796
-1.546668 -0.086302 -14.189332
-1.562018 -0.010545 -14.330157
-1.474385 -2.731537 -13.526197
-1.465704 -2.574441 -13.446556
-1.459951 -2.456926 -13.393779
-1.455096 -2.327978 -13.349239
-1.534847 -3.32998 -14.080883
-1.516259 -3.203841 -13.910354
-1.451711 -2.213019 -13.318182
-1.44845 -2.090555 -13.288266
-1.49855 -3.033557 -13.74789
-1.487358 -2.909892 -13.645214
-1.486727 -1.666348 -13.267862
-1.487148 -1.598572 -13.271617
-1.634933 0.085298 -14.590482
-1.685502 0.174569 -15.041771
-1.487636 -1.519903 -13.27597
-1.488705 -1.428082 -13.285516
-1.488582 -2.004528 -13.284412
-1.487513 -1.91571 -13.274874
-1.490192 -1.369328 -13.298786
-1.49236 -1.283657 -13.318132
-1.486613 -1.84087 -13.266839
-1.486122 -1.763878 -13.262463
-1.518407 -0.726306 -13.550575
-1.523501 -0.661624 -13.596042
-1.494807 -1.186979 -13.33997
-1.496307 -1.127742 -13.353349
-1.530563 -0.571974 -13.65906
-1.535807 -0.509091 -13.705859
-1.499931 -1.045119 -13.385693
-1.50436 -0.962599 -13.42522
-1.545181 -0.418596 -13.789515
-1.553026 -0.352302 -13.859529
-1.507951 -0.895694 -13.457267
-1.512428 -0.812288 -13.497217
-1.566423 -0.243199 -13.979085
-1.575971 -0.172358 -14.064287
-1.592027 -0.086441 -14.207574
-1.608036 -0.010563 -14.350449
-1.516951 -2.734748 -13.537581
-1.507746 -2.577 -13.455436
-1.501822 -2.459358 -13.402569
-1.496634 -2.329981 -13.356272
-1.580489 -3.336702 -14.104607
-1.560968 -3.209528 -13.9304
-1.493149 -2.214918 -13.325168
-1.489636 -2.092126 -13.293823
-1.542264 -3.038011 -13.763487
-1.530314 -2.913341 -13.656837
-1.527749 -1.667453 -13.272117
-1.528181 -1.599632 -13.275871
-1.684857 0.085599 -14.636967
-1.528683 -1.520912 -13.280231
-1.529638 -1.428895 -13.288528
-1.529804 -2.006054 -13.289969
-1.528705 -1.917167 -13.28042
-1.531167 -1.370108 -13.301809
-1.533396 -1.28439 -13.321173
-1.527779 -1.842269 -13.272374
-1.527127 -1.765048 -13.266712
-1.560667 -0.726957 -13.558083
-1.565908 -0.662219 -13.603616
-1.535921 -1.187665 -13.343113
-1.537845 -1.128675 -13.359825
-1.573558 -0.572631 -13.670074
-1.57919 -0.509754 -13.719
-1.541916 -1.046219 -13.395191
-1.546474 -0.963615 -13.434786
-1.588436 -0.419038 -13.799324
-1.59672 -0.352722 -13.871296
-1.550169 -0.896642 -13.466888
-1.554776 -0.81315 -13.506911
-1.610759 -0.243529 -13.993256
-1.6208 -0.172616 -14.080483
-1.637601 -0.086586 -14.226439
-1.655257 -0.010589 -14.379827
-1.559622 -2.737994 -13.54901
-1.549876 -2.57959 -13.464345
-1.543781 -2.461821 -13.411392
-1.538247 -2.332009 -13.36332
-1.626326 -3.343497 -14.128488
-1.606199 -3.215984 -13.95364
-1.534662 -2.216842 -13.332174
-1.530888 -2.093719 -13.299388
-1.586115 -3.042515 -13.779167
-1.573378 -2.916831 -13.668511
-1.568825 -1.668575 -13.276371
-1.569269 -1.600709 -13.280132
-1.735135 0.085903 -14.683789
-1.569785 -1.521936 -13.284496
-1.570618 -1.429722 -13.29154
-1.57109 -2.0076 -13.295535
-1.56996 -1.918644 -13.285975
-1.572188 -1.370902 -13.304831
-1.57484 -1.28543 -13.327276
-1.569008 -1.843687 -13.277918
-1.568186 -1.766235 -13.270964
-1.603002 -0.727616 -13.5656
-1.608649 -0.662928 -13.613387
-1.578068 -1.189105 -13.354591
-1.580047 -1.130045 -13.371338
-1.61689 -0.57338 -13.68313
-1.622685 -0.510423 -13.732165
-1.583989 -1.04733 -13.404698
-1.588676 -0.964641 -13.444366
-1.631914 -0.419518 -13.810273
-1.640532 -0.353149 -13.883203
-1.592477 -0.897599 -13.476527
-1.597215 -0.81402 -13.51662
-1.655615 -0.243921 -14.010842
-1.665952 -0.172895 -14.098321
-1.683328 -0.086731 -14.245366
-1.702705 -0.010614 -14.409343
-1.602398 -2.741277 -13.560486
-1.592093 -2.58221 -13.473283
-1.585826 -2.464311 -13.420239
-1.579935 -2.334064 -13.370388
-1.672358 -3.350365 -14.152532
-1.65162 -3.222508 -13.977029
-1.576249 -2.218791 -13.3392
-1.572306 -2.09547 -13.305832
-1.630101 -3.047066 -13.794925
-1.616548 -2.920359 -13.680232
-1.609957 -1.669713 -13.280635
-1.610413 -1.601801 -13.284399
-1.785772 0.08621 -14.730945
-1.610943 -1.522974 -13.288766
-1.612048 -1.43092 -13.297878
-1.61244 -2.009167 -13.301113
-1.611279 -1.920141 -13.291539
-1.614061 -1.372393 -13.31449
-1.616999 -1.286999 -13.338726
-1.610301 -1.845125 -13.283474
-1.609301 -1.767439 -13.275221
-1.645754 -0.728433 -13.57592
-1.651863 -0.663797 -13.626314
-1.620317 -1.190559 -13.366096
-1.622351 -1.131429 -13.382876
-1.660337 -0.574136 -13.696221
-1.666299 -0.511099 -13.7454
-1.626152 -1.048453 -13.414227
-1.630969 -0.965678 -13.453963
-1.675592 -0.420027 -13.822058
-1.684451 -0.35358 -13.895138
-1.634875 -0.898567 -13.486182
-1.639744 -0.8149 -13.526349
-1.700616 -0.244317 -14.028481
-1.712195 -0.173273 -14.124004
-1.72921 -0.086878 -14.264356
-1.750381 -0.01064 -14.439003
-1.645279 -2.744597 -13.572008
-1.634399 -2.584863 -13.482253
-1.627957 -2.466833 -13.429121
-1.621696 -2.336144 -13.377474
-1.718588 -3.357307 -14.176736
-1.697232 -3.229101 -14.000571
-1.61791 -2.220763 -13.346241
-1.61386 -2.097329 -13.31283
-1.674223 -3.051666 -13.810768
-1.659826 -2.923928 -13.692005
-1.651314 -1.671042 -13.286283
-1.65218 -1.603462 -13.293253
-1.837728 0.086565 -14.786149
-1.653186 -1.524981 -13.301348
-1.654367 -1.432847 -13.31085
-1.653852 -2.010756 -13.306703
-1.65266 -1.921658 -13.297116
-1.656239 -1.374078 -13.325911
-1.659258 -1.288583 -13.350197
-1.651657 -1.846581 -13.28904
-1.650617 -1.768821 -13.280677
-1.688909 -0.729392 -13.588766
-1.695186 -0.664674 -13.639271
-1.662666 -1.192027 -13.377625
-1.664757 -1.132826 -13.394442
-1.703894 -0.574898 -13.709338
-1.710304 -0.511866 -13.760915
-1.668402 -1.049587 -13.423768
-1.673349 -0.966726 -13.463578
-1.719589 -0.420595 -13.835612
-1.728969 -0.354117 -13.911083
-1.677361 -0.899544 -13.495854
-1.682748 -0.815977 -13.539202
-1.745759 -0.244715 -14.046177
-1.75889 -0.173678 -14.151824
-1.775781 -0.087053 -14.287735
-1.798286 -0.010666 -14.468804
-1.688264 -2.747954 -13.583577
-1.676789 -2.587545 -13.491251
-1.670174 -2.469383 -13.438027
-1.663531 -2.33825 -13.384579
-1.765577 -3.365395 -14.205631
-1.743037 -3.235765 -14.024273
-1.659643 -2.222761 -13.353299
-1.655485 -2.099211 -13.31984
-1.718479 -3.056316 -13.826688
-1.703209 -2.927536 -13.703826
-1.693726 -1.673362 -13.299679
-1.694615 -1.605689 -13.306665
-1.89501 0.087149 -14.880232
-1.695649 -1.5271 -13.31478
-1.696862 -1.434839 -13.324307
-1.695333 -2.012365 -13.3123
-1.694228 -1.923328 -13.303627
-1.698524 -1.37578 -13.337356
-1.701623 -1.290182 -13.361695
-1.693551 -1.84857 -13.298306
-1.692848 -1.771106 -13.292789
-1.732295 -0.730408 -13.602535
-1.738628 -0.66556 -13.652263
-1.705124 -1.19351 -13.389181
-1.707271 -1.134237 -13.406037
-1.747859 -0.575763 -13.724752
-1.754446 -0.512639 -13.776475
-1.710746 -1.050733 -13.433329
-1.715825 -0.967785 -13.47321
-1.764152 -0.421274 -13.852689
-1.773799 -0.354693 -13.928444
-1.720406 -0.900774 -13.509184
-1.726236 -0.817237 -13.554961
-1.791986 -0.245245 -14.071253
-1.805807 -0.174087 -14.179775
-1.825242 -0.087358 -14.332388
-1.846429 -0.010692 -14.498754
-1.73136 -2.751348 -13.595195
-1.719273 -2.590261 -13.500283
-1.712483 -2.471963 -13.446966
-1.705445 -2.340382 -13.391703
-1.818226 -3.383657 -14.277297
-1.790304 -3.244789 -14.058045
-1.701456 -2.224783 -13.360379
-1.697189 -2.101116 -13.326871
-1.762879 -3.061015 -13.842696
-1.747108 -2.931859 -13.718856
-1.736255 -1.675703 -13.313111
-1.737169 -1.607937 -13.320115
-1.73823 -1.529239 -13.328249
-1.739475 -1.436851 -13.3378
-1.737876 -2.015149 -13.325534
-1.73705 -1.926329 -13.319202
-1.740914 -1.377499 -13.348829
-1.744094 -1.291797 -13.373219
-1.736354 -1.851453 -13.313868
-1.735633 -1.773867 -13.308337
-1.776079 -0.731548 -13.618467
-1.782342 -0.666512 -13.666491
-1.747687 -1.195007 -13.400764
-1.749889 -1.135661 -13.417651
-1.791958 -0.576636 -13.740218
-1.798721 -0.513419 -13.792078
-1.753183 -1.051891 -13.442904
-1.759074 -0.969229 -13.488075
-1.809537 -0.422117 -13.87501
-1.818776 -0.355275 -13.945856
-1.763872 -0.90217 -13.524865
-1.769858 -0.818508 -13.570764
-1.838731 -0.245822 -14.098866
-1.852945 -0.1745 -14.207855
-1.87505 -0.087666 -14.37735
-1.898488 -0.010739 -14.557068
-1.774565 -2.75478 -13.606861
-1.761847 -2.593006 -13.509341
-1.754882 -2.474573 -13.455935
-1.747437 -2.342541 -13.398847
-1.874229 -3.407201 -14.371053
-1.83985 -3.257456 -14.107443
-1.743648 -2.227216 -13.369792
-1.739663 -2.103884 -13.339242
-1.80877 -3.068053 -13.869129
-1.791537 -2.936876 -13.73699
-1.778905 -1.678066 -13.32658
-1.779842 -1.610206 -13.333601
-1.78093 -1.531398 -13.341754
-1.782208 -1.43888 -13.351327
-1.780854 -2.018318 -13.341179
-1.780006 -1.929357 -13.334831
-1.783409 -1.379234 -13.360327
-1.786672 -1.293427 -13.384768
-1.779292 -1.854362 -13.329477
-1.778551 -1.776652 -13.323933
-1.820189 -0.732774 -13.635859
-1.826322 -0.667525 -13.681802
-1.790357 -1.196518 -13.412371
-1.792831 -1.137236 -13.430909
-1.83619 -0.577517 -13.755728
-1.843553 -0.514324 -13.810891
-1.796652 -1.053612 -13.459535
-1.802547 -0.970738 -13.503698
-1.855103 -0.422967 -13.897414
-1.863901 -0.355861 -13.963323
-1.807472 -0.903579 -13.540589
-1.813615 -0.81979 -13.586611
-1.885696 -0.246404 -14.126598
-1.900742 -0.174956 -14.23932
-1.925212 -0.087977 -14.422633
-1.953882 -0.010803 -14.637415
-1.819579 -2.760824 -13.631291
-1.805802 -2.597637 -13.528081
-1.798777 -2.479149 -13.475451
-1.790918 -2.346575 -13.416576
-1.932473 -3.433694 -14.477033
-1.889794 -3.27027 -14.157299
-1.787096 -2.231128 -13.387945
-1.783006 -2.107571 -13.357302
-1.85592 -3.076889 -13.903537
-1.838187 -2.945253 -13.770693
-1.821671 -1.68045 -13.340082
-1.822633 -1.612495 -13.347124
-1.823749 -1.533577 -13.355297
-1.825059 -1.440929 -13.364892
-1.823964 -2.021515 -13.356875
-1.823095 -1.932411 -13.350506
-1.826009 -1.380986 -13.371849
-1.829353 -1.295073 -13.39634
-1.822362 -1.857297 -13.34514
-1.821602 -1.779463 -13.339578
-1.864605 -0.734074 -13.654485
-1.870432 -0.668546 -13.697156
-1.833797 -1.198478 -13.428876
-1.836569 -1.139246 -13.44918
-1.880814 -0.578485 -13.773184
-1.888991 -0.51536 -13.833067
-1.84049 -1.055478 -13.477893
-1.846153 -0.97226 -13.519366
-1.900849 -0.423824 -13.919905
-1.910529 -0.356707 -13.99079
-1.851204 -0.904999 -13.556355
-1.857659 -0.82115 -13.603625
-1.932879 -0.24699 -14.154461
-1.950527 -0.175573 -14.28369
-1.975727 -0.088292 -14.468235
-2.009932 -0.010867 -14.718713
-1.865036 -2.767288 -13.657645
-1.850303 -2.602859 -13.549758
-1.843091 -2.484113 -13.496937
-1.83502 -2.351251 -13.437839
-1.940137 -3.283227 -14.207605
-1.830695 -2.235075 -13.406168
-1.826498 -2.111291 -13.375428
-1.903345 -3.085812 -13.938181
-1.885107 -2.953712 -13.804622
-1.864563 -1.682857 -13.353626
-1.865548 -1.614805 -13.360681
-1.866692 -1.535776 -13.368875
-1.868035 -1.442996 -13.378493
-1.867215 -2.024741 -13.372618
-1.866324 -1.935494 -13.366236
-1.869099 -1.383035 -13.386114
-1.872986 -1.297315 -13.413947
-1.865572 -1.860258 -13.360852
-1.864794 -1.782299 -13.355277
-1.909182 -0.735385 -13.673177
-1.91468 -0.669576 -13.712554
-1.877621 -1.200609 -13.447145
-1.880465 -1.141274 -13.467512
-1.926224 -0.579652 -13.795228
-1.934616 -0.516404 -13.855331
-1.884487 -1.057361 -13.496318
-1.889899 -0.973796 -13.535076
-1.946939 -0.424722 -13.94359
-1.958467 -0.357757 -14.026148
-1.895207 -0.906494 -13.573092
-1.902058 -0.822612 -13.622157
-1.980292 -0.247582 -14.182455
-2.000667 -0.176195 -14.328379
-2.027779 -0.08866 -14.522543
-2.066658 -0.010932 -14.800993
-1.910713 -2.773812 -13.684141
-1.89499 -2.608129 -13.571539
-1.887588 -2.489123 -13.518526
-1.879307 -2.355972 -13.459217
-1.992064 -3.29827 -14.266763
-1.874454 -2.239057 -13.424462
-1.870148 -2.115043 -13.393622
-1.951056 -3.094824 -13.973069
-1.932306 -2.962256 -13.838785
-1.907578 -1.685286 -13.367207
-1.908587 -1.617137 -13.374278
-1.909998 -1.538187 -13.384165
-1.911981 -1.445722 -13.398058
-1.910733 -2.028132 -13.389311
-1.909691 -1.938604 -13.382014
-1.913266 -1.38579 -13.407063
-1.91685 -1.299631 -13.432175
-1.908921 -1.863246 -13.376618
-1.908123 -1.785161 -13.371027
-1.953918 -0.736707 -13.691931
-1.960069 -0.67096 -13.735031
-1.921602 -1.202757 -13.465476
-1.924518 -1.14332 -13.485908
-1.971818 -0.580829 -13.817358
-1.980426 -0.517457 -13.877679
-1.928641 -1.059261 -13.514804
-1.933963 -0.975435 -13.552095
-1.994842 -0.425972 -13.978701
-2.006688 -0.358817 -14.061711
-1.93959 -0.908112 -13.591528
-1.946615 -0.824085 -13.64075
-2.02944 -0.248363 -14.221145
-2.051165 -0.176824 -14.373381
-2.083874 -0.089187 -14.602589
-2.136891 -0.011065 -14.974098
-1.956609 -2.780396 -13.710784
-1.94023 -2.613945 -13.596015
-1.932268 -2.494178 -13.540215
-1.923773 -2.360736 -13.480687
-2.049798 -3.32212 -14.363806
-1.91837 -2.243075 -13.442827
-1.913955 -2.11883 -13.411893
-1.99905 -3.103925 -14.00819
-1.979784 -2.970883 -13.873183
-1.951035 -1.688014 -13.383023
-1.952525 -1.620135 -13.393243
-1.954255 -1.541265 -13.405111
-1.956288 -1.448618 -13.419057
-1.954614 -2.031782 -13.407574
-1.953196 -1.941742 -13.397844
-1.957606 -1.388567 -13.428096
-1.960866 -1.301967 -13.45046
-1.952407 -1.866261 -13.392434
-1.951589 -1.788048 -13.386827
-1.999504 -0.738296 -13.715492
-2.00622 -0.672548 -13.761561
-1.965736 -1.204924 -13.483866
-1.968724 -1.145383 -13.504363
-2.017592 -0.582016 -13.83957
-2.026525 -0.518547 -13.900843
-1.973189 -1.061304 -13.534985
-1.978362 -0.977183 -13.570469
-2.043023 -0.427234 -14.014012
-2.055192 -0.359886 -14.09748
-1.984129 -0.909744 -13.610028
-1.991327 -0.825571 -13.659402
-2.079924 -0.249274 -14.267129
-2.10202 -0.177459 -14.418699
-2.140636 -0.08972 -14.683584
-2.002723 -2.787041 -13.737574
-1.985919 -2.620139 -13.622306
-1.977127 -2.499278 -13.561999
-1.968417 -2.365541 -13.502253
-2.121354 -3.366952 -14.551317
-1.962441 -2.247129 -13.461263
-1.957917 -2.12265 -13.430229
-2.050076 -3.117291 -14.062395
-2.027541 -2.979595 -13.907812
-1.995674 -1.691646 -13.405858
-1.99692 -1.623395 -13.414233
-1.998694 -1.544369 -13.426146
-2.000777 -1.451539 -13.44014
-1.998659 -2.035465 -13.425911
-1.997119 -1.945175 -13.41557
-2.002127 -1.391369 -13.44921
-2.005045 -1.304322 -13.46881
-1.99669 -1.869913 -13.412683
-1.996245 -1.791899 -13.409699
-2.045706 -0.740049 -13.741947
-2.052593 -0.67415 -13.788215
-2.010099 -1.207149 -13.502761
-2.013413 -1.147645 -13.525024
-2.063559 -0.583213 -13.861874
-2.074554 -0.520079 -13.935739
-2.018101 -1.063465 -13.556515
-2.022923 -0.978945 -13.588905
-2.091494 -0.428507 -14.04953
-2.103989 -0.360965 -14.133462
-2.028831 -0.911389 -13.628589
-2.036593 -0.827228 -13.680736
-2.132852 -0.250438 -14.327348
-2.153246 -0.178099 -14.464344
-2.198335 -0.090271 -14.767225
-2.049065 -2.793747 -13.764513
-2.031831 -2.626391 -13.648743
-2.022176 -2.504424 -13.583885
-2.013249 -2.37039 -13.523923
-2.006677 -2.251218 -13.47977
-2.002042 -2.126505 -13.448639
-2.104716 -3.135521 -14.138348
-2.077753 -2.99151 -13.957226
-2.040676 -1.69545 -13.429913
-2.041495 -1.626683 -13.435305
-2.043311 -1.5475 -13.44726
-2.045446 -1.454484 -13.461305
-2.044137 -2.040451 -13.452696
-2.042157 -1.949552 -13.439662
-2.046829 -1.394194 -13.47041
-2.049469 -1.306752 -13.487782
-2.041717 -1.874121 -13.436767
-2.041261 -1.79593 -13.433767
-2.092127 -0.741816 -13.768521
-2.099188 -0.675766 -13.81499
-2.055 -1.209613 -13.524184
-2.058395 -1.149991 -13.546527
-2.110918 -0.584754 -13.892184
-2.122869 -0.521626 -13.970837
-2.063197 -1.065644 -13.578133
-2.068023 -0.980902 -13.609888
-2.140255 -0.429792 -14.085256
-2.154793 -0.362342 -14.180933
-2.073817 -0.913103 -13.648017
-2.082786 -0.829195 -13.707048
-2.186277 -0.251614 -14.388132
-2.212157 -0.17934 -14.558454
-2.297441 -0.092468 -15.119711
-2.097593 -2.803133 -13.80449
-2.079057 -2.634083 -13.682509
-2.068095 -2.510444 -13.610363
-2.058917 -2.376032 -13.549962
-2.051735 -2.25607 -13.502697
-2.047344 -2.131449 -13.473797
-2.16001 -3.15401 -14.215268
-2.128736 -3.004065 -14.009446
-2.08588 -1.699287 -13.454076
-2.08625 -1.629999 -13.456462
-2.088111 -1.550657 -13.468461
-2.090345 -1.457489 -13.48287
-2.089958 -2.045596 -13.480375
-2.087398 -1.953968 -13.463867
-2.091977 -1.39722 -13.493398
-2.09442 -1.309429 -13.509154
-2.086948 -1.878365 -13.460959
-2.086481 -1.799996 -13.457951
-2.138771 -0.743599 -13.795222
-2.146006 -0.677395 -13.841891
-2.100084 -1.212097 -13.545689
-2.10356 -1.152357 -13.568111
-2.15965 -0.586612 -13.929894
-2.171471 -0.523186 -14.00614
-2.108478 -1.067841 -13.599834
-2.113665 -0.983043 -13.633288
-2.189309 -0.431088 -14.121194
-2.207795 -0.36403 -14.240433
-2.120007 -0.915278 -13.674196
-2.129199 -0.831179 -13.733482
-2.240205 -0.252804 -14.449481
-2.276754 -0.180985 -14.685225
-2.146462 -2.812626 -13.84483
-2.127432 -2.642925 -13.722083
-2.115196 -2.517659 -13.643162
-2.105782 -2.38283 -13.58244
-2.097745 -2.26178 -13.530603
-2.093244 -2.136832 -13.501571
-2.218199 -3.175952 -14.307537
-2.180154 -3.016762 -14.062149
-2.131288 -1.703157 -13.478351
-2.131185 -1.633343 -13.4777
-2.133315 -1.554005 -13.491168
-2.135894 -1.460838 -13.507475
-2.136007 -2.050786 -13.508193
-2.132842 -1.95842 -13.488178
-2.137565 -1.400434 -13.518045
-2.140001 -1.312404 -13.533453
-2.13238 -1.882644 -13.48526
-2.131902 -1.804096 -13.482237
-2.185635 -0.745396 -13.822043
-2.19542 -0.679773 -13.883922
-2.14535 -1.214602 -13.567277
-2.148909 -1.154743 -13.589784
-2.209463 -0.588694 -13.972735
-2.22036 -0.52476 -14.041646
-2.154279 -1.070224 -13.623747
-2.160625 -0.985714 -13.663877
-2.24124 -0.432895 -14.173693
-2.261288 -0.365738 -14.300479
-2.166414 -0.917471 -13.70049
-2.175829 -0.833179 -13.760034
-2.298122 -0.254393 -14.533414
-2.342543 -0.182662 -14.814333
-2.196116 -2.822795 -13.888328
-2.176131 -2.651853 -13.761938
-2.162567 -2.52494 -13.67616
-2.152915 -2.389691 -13.615117
-2.144214 -2.26778 -13.560093
-2.139374 -2.142262 -13.529488
-2.277274 -3.198335 -14.401569
-2.232886 -3.030789 -14.120861
-2.177229 -1.707313 -13.504736
-2.176979 -1.63722 -13.503185
-2.179016 -1.557595 -13.515821
-2.181655 -1.464216 -13.532192
-2.182295 -2.056021 -13.53616
-2.178804 -1.963188 -13.514504
-2.183367 -1.403675 -13.542808
-2.185861 -1.315445 -13.55828
-2.178025 -1.886961 -13.509673
-2.177589 -1.808276 -13.506971
-2.234854 -0.74792 -13.862166
-2.245221 -0.682185 -13.926476
-2.190806 -1.217129 -13.588952
-2.194878 -1.157375 -13.614208
-2.259635 -0.590797 -14.015878
-2.26979 -0.526405 -14.078869
-2.201341 -1.073141 -13.654298
-2.207844 -0.988409 -13.694631
-2.294667 -0.434921 -14.233169
-2.31529 -0.367465 -14.361089
-2.213115 -0.919711 -13.727327
-2.222689 -0.835197 -13.786713
-2.363455 -0.256729 -14.659843
-2.247837 -2.835211 -13.942699
-2.225168 -2.660871 -13.802087
-2.210219 -2.532289 -13.709361
-2.200325 -2.396615 -13.647994
-2.191407 -2.274325 -13.592679
-2.185745 -2.14774 -13.557555
-2.288027 -3.047521 -14.191984
-2.223675 -1.71172 -13.532954
-2.223418 -1.641445 -13.531393
-2.224929 -1.561214 -13.540583
-2.22763 -1.467623 -13.557023
-2.229005 -2.061474 -13.565394
-2.225556 -1.968497 -13.544401
-2.229381 -1.406943 -13.56768
-2.231934 -1.318511 -13.583218
-2.224331 -1.891699 -13.536946
-2.224044 -1.812945 -13.5352
-2.284741 -0.750578 -13.904592
-2.295377 -0.68462 -13.969326
-2.237365 -1.220174 -13.616269
-2.24204 -1.160539 -13.644722
-2.310166 -0.592919 -14.059325
-2.32253 -0.528747 -14.134571
-2.248661 -1.076083 -13.685014
-2.255321 -0.991126 -13.725547
-2.348596 -0.43697 -14.293203
-2.369803 -0.369212 -14.422268
-2.26072 -0.922246 -13.758409
-2.27071 -0.837576 -13.819205
-2.429999 -0.259112 -14.78861
-2.30102 -2.849007 -14.003664
-2.275175 -2.67072 -13.846379
-2.25924 -2.540932 -13.7494
-2.24804 -2.403633 -13.68124
-2.238875 -2.280929 -13.625463
-2.232413 -2.153324 -13.58613
-2.348967 -3.071249 -14.295465
-2.270358 -1.716166 -13.561316
-2.270096 -1.645708 -13.55975
-2.271051 -1.564865 -13.565454
-2.273815 -1.471059 -13.581964
-2.276487 -2.067451 -13.597927
-2.272955 -1.974197 -13.576826
-2.275632 -1.410255 -13.592819
-2.279392 -1.322285 -13.615277
-2.271029 -1.896613 -13.565326
-2.270736 -1.817654 -13.56357
-2.334979 -0.75326 -13.947308
-2.345888 -0.687078 -14.012475
-2.28467 -1.223522 -13.646805
-2.289457 -1.16373 -13.675398
-2.361696 -0.595223 -14.106898
-2.379027 -0.53185 -14.210419
-2.296236 -1.07905 -13.715892
-2.303056 -0.993868 -13.756629
-2.404342 -0.439282 -14.361628
-2.424833 -0.370978 -14.484024
-2.30882 -0.924897 -13.791058
-2.320589 -0.840551 -13.861358
-2.354726 -2.862971 -14.065265
-2.325966 -2.681145 -13.893476
-2.309612 -2.55078 -13.795788
-2.296853 -2.411574 -13.719577
-2.287421 -2.288397 -13.663235
-2.279977 -2.159577 -13.618774
-2.419849 -3.106918 -14.454255
-2.317289 -1.720651 -13.58983
-2.31702 -1.650008 -13.588254
-2.317393 -1.568546 -13.590442
-2.321139 -1.475108 -13.612411
-2.32425 -2.073484 -13.630657
-2.320633 -1.979949 -13.609443
-2.32378 -1.414615 -13.627895
-2.327631 -1.326379 -13.650482
-2.317976 -1.901571 -13.593859
-2.317675 -1.822405 -13.592094
-2.38558 -0.755969 -13.990328
-2.396767 -0.68956 -14.055934
-2.332239 -1.2269 -13.677505
-2.337138 -1.166949 -13.70624
-2.418343 -0.598717 -14.182468
-2.436195 -0.534995 -14.287158
-2.344079 -1.082044 -13.746941
-2.35173 -0.996918 -13.791813
-2.462273 -0.441907 -14.440096
-2.498161 -0.375435 -14.650565
-2.360105 -0.928715 -13.840928
-2.370826 -0.843555 -13.903803
-2.410802 -2.879292 -14.138241
-2.377163 -2.691681 -13.940967
-2.360384 -2.560734 -13.842564
-2.345995 -2.419592 -13.75818
-2.336329 -2.295974 -13.701493
-2.327824 -2.165889 -13.651615
-2.364547 -1.725235 -13.61896
-2.364944 -1.654873 -13.621247
-2.365404 -1.573224 -13.623896
-2.369521 -1.479691 -13.647612
-2.372294 -2.079572 -13.663584
-2.368591 -1.985752 -13.642256
-2.372225 -1.419015 -13.663185
-2.376169 -1.330511 -13.6859
-2.365476 -1.906821 -13.624312
-2.364861 -1.827198 -13.62077
-2.436546 -0.758704 -14.033652
-2.449751 -0.692558 -14.10971
-2.380622 -1.230592 -13.711547
-2.385085 -1.170197 -13.737251
-2.475659 -0.602257 -14.258926
-2.494042 -0.538182 -14.364809
-2.392648 -1.085274 -13.780816
-2.40322 -1.001044 -13.841707
-2.527522 -0.445735 -14.557637
-2.578862 -0.380829 -14.85334
-2.411815 -0.932572 -13.89121
-2.422558 -0.846984 -13.953086
-2.471289 -2.900249 -14.23376
-2.429179 -2.702786 -13.99122
-2.411557 -2.570791 -13.889723
-2.395467 -2.427688 -13.797051
-2.385565 -2.303625 -13.740017
-2.375953 -2.172257 -13.684653
-2.414023 -1.731267 -13.659365
-2.414429 -1.660661 -13.661665
-2.4149 -1.578727 -13.664331
-2.418205 -1.484315 -13.683032
-2.420623 -2.085715 -13.696711
-2.417069 -1.991804 -13.676603
-2.420973 -1.423454 -13.698691
-2.42501 -1.334681 -13.721538
-2.414229 -1.9129 -13.660532
-2.413437 -1.832899 -13.656053
-2.487937 -0.761482 -14.077599
-2.506985 -0.69664 -14.185374
-2.42957 -1.234456 -13.747334
-2.433543 -1.173591 -13.76982
-2.533655 -0.605844 -14.336283
-2.552581 -0.541411 -14.443377
-2.444294 -1.089774 -13.830648
-2.455139 -1.005213 -13.892015
-2.608161 -0.452105 -14.757864
-2.463956 -0.93647 -13.941905
-2.474978 -0.850541 -14.00427
-2.532674 -2.921551 -14.330732
-2.485097 -2.717804 -14.061531
-2.465284 -2.583205 -13.949418
-2.445414 -2.436002 -13.836985
-2.435132 -2.31135 -13.778809
-2.424366 -2.178684 -13.717893
-2.463842 -1.737358 -13.700048
-2.464258 -1.666504 -13.702363
-2.464741 -1.584283 -13.70505
-2.46719 -1.488981 -13.718665
-2.471515 -2.093846 -13.742716
-2.468055 -1.999706 -13.723478
-2.470023 -1.427934 -13.734419
-2.474156 -1.338888 -13.757398
-2.465144 -1.92048 -13.707288
-2.463242 -1.839346 -13.696714
-2.546525 -0.76634 -14.159801
-2.56489 -0.700776 -14.26192
-2.480703 -1.239295 -13.793804
-2.485688 -1.178631 -13.821521
-2.59234 -0.609479 -14.414556
-2.617405 -0.545848 -14.553926
-2.496364 -1.09432 -13.880883
-2.507487 -1.009426 -13.942736
-2.69113 -0.458662 -14.963873
-2.51653 -0.940409 -13.993016
-2.527834 -0.854134 -14.05587
-2.65755 -3.014181 -14.777151
-2.544887 -2.736509 -14.150694
-2.521264 -2.597549 -14.019341
-2.498663 -2.447296 -13.893671
-2.487767 -2.321702 -13.83308
-2.476243 -2.187978 -13.769004
-2.514017 -1.743507 -13.741021
-2.514443 -1.672403 -13.74335
-2.514938 -1.589893 -13.746056
-2.516488 -1.49369 -13.754524
-2.522999 -2.102218 -13.790112
-2.519453 -2.007689 -13.770731
-2.519386 -1.432455 -13.770368
-2.526087 -1.34445 -13.806991
-2.516469 -1.928138 -13.754423
-2.513403 -1.845855 -13.737668
-2.608201 -0.771958 -14.255805
-2.625005 -0.705374 -14.347651
-2.534416 -1.245251 -13.852516
-2.539532 -1.184306 -13.880482
-2.651738 -0.613164 -14.493771
-2.699391 -0.553664 -14.754231
-2.548874 -1.098915 -13.931542
-2.560279 -1.013682 -13.993876
-2.569551 -0.944389 -14.044557
-2.586127 -0.859422 -14.135158
-2.607069 -2.757147 -14.249619
-2.577878 -2.612083 -14.09007
-2.554642 -2.460866 -13.963068
-2.541151 -2.332418 -13.88933
-2.529326 -2.19803 -13.824696
-2.564549 -1.749717 -13.782287
-2.564986 -1.678361 -13.784632
-2.565492 -1.595557 -13.787354
-2.567544 -1.499286 -13.798377
-2.574897 -2.110676 -13.837896
-2.571264 -2.015756 -13.81837
-2.572548 -1.438967 -13.825272
-2.580099 -1.350933 -13.865853
-2.568206 -1.935876 -13.801937
-2.565042 -1.853237 -13.784938
-2.670787 -0.777666 -14.353223
-2.688122 -0.710623 -14.446383
-2.588647 -1.251275 -13.911792
-2.593899 -1.190048 -13.940013
-2.743773 -0.624159 -14.745463
-2.601826 -1.103558 -13.982616
-2.613517 -1.017984 -14.045445
-2.626328 -0.949607 -14.114296
-2.648018 -0.865722 -14.230859
-2.693835 -2.802719 -14.477084
-2.635162 -2.626836 -14.161768
-2.61125 -2.474614 -14.033263
-2.595034 -2.343257 -13.946113
-2.582902 -2.208197 -13.880916
-2.615553 -1.75606 -13.824426
-2.617861 -1.685645 -13.836624
-2.620543 -1.603807 -13.8508
-2.623695 -1.507645 -13.86746
-2.627932 -2.119801 -13.889853
-2.623493 -2.023907 -13.866395
-2.626885 -1.445931 -13.884322
-2.634633 -1.357491 -13.925274
-2.620361 -1.943695 -13.84984
-2.617121 -1.860713 -13.832713
-2.734304 -0.783465 -14.452083
-2.763688 -0.71895 -14.607391
-2.643405 -1.257369 -13.971635
-2.648794 -1.195855 -14.000119
-2.656425 -1.10875 -14.040451
-2.670684 -1.023664 -14.115819
-2.688455 -0.95657 -14.209746
-2.710822 -0.872123 -14.327969
-2.710944 -2.659288 -14.328612
-2.671923 -2.491736 -14.122366
-2.649421 -2.354221 -14.003437
-2.636978 -2.21848 -13.937669
-2.672107 -1.76589 -13.893816
-2.674478 -1.695089 -13.906143
-2.677233 -1.612802 -13.920472
-2.680471 -1.516111 -13.937309
-2.685288 -2.132092 -13.962357
-2.678812 -2.034168 -13.928681
-2.682571 -1.453422 -13.948224
-2.689695 -1.364124 -13.985271
-2.676507 -1.954201 -13.916696
-2.674121 -1.871417 -13.90429
-2.808128 -0.791998 -14.60107
-2.876716 -0.736615 -14.957699
-2.698693 -1.263534 -14.032056
-2.704223 -1.20173 -14.060806
-2.716153 -1.115898 -14.122839
-2.73339 -1.031266 -14.212466
-2.751492 -0.963643 -14.306587
-2.774554 -0.878626 -14.426501
-2.800053 -2.703617 -14.559082
-2.743062 -2.517955 -14.262755
-2.711626 -2.371701 -14.099299
-2.695927 -2.232498 -14.017672
-2.730791 -1.776816 -13.971613
-2.731737 -1.704655 -13.976451
-2.734568 -1.621913 -13.990934
-2.737894 -1.524687 -14.007952
-2.74918 -2.149129 -14.065698
-2.73877 -2.047596 -14.012434
-2.740051 -1.46165 -14.018987
-2.745301 -1.370834 -14.045849
-2.736398 -1.967091 -14.0003
-2.733942 -1.883749 -13.987732
-2.934829 -0.814956 -15.015535
-2.754531 -1.26977 -14.093074
-2.766342 -1.210361 -14.153504
-2.783947 -1.126096 -14.243574
-2.801776 -1.040751 -14.334794
-2.816322 -0.971124 -14.409217
-2.839249 -0.885235 -14.526517
-2.815727 -2.544762 -14.406174
-2.783119 -2.396658 -14.239338
-2.760159 -2.250409 -14.121866
-2.791316 -1.788606 -14.055964
-2.789646 -1.714346 -14.047555
-2.792554 -1.631143 -14.062196
-2.795969 -1.533374 -14.079393
-2.814104 -2.166461 -14.170714
-2.802693 -2.063555 -14.113254
-2.798185 -1.469985 -14.09055
-2.801457 -1.377624 -14.107031
-2.797085 -1.980169 -14.085011
-2.794558 -1.896263 -14.072288
-2.822002 -1.28111 -14.210486
-2.834783 -1.221463 -14.274843
-2.852989 -1.136491 -14.366524
-2.87143 -1.05042 -14.459385
-2.886477 -0.980194 -14.535157
-2.999445 -0.920974 -15.10402
-2.85614 -2.422175 -14.38239
-2.825433 -2.268631 -14.227761
-2.852645 -1.800569 -14.141437
-2.850334 -1.725446 -14.129976
-2.851198 -1.640493 -14.134263
-2.857299 -1.543574 -14.164502
-2.880082 -2.184097 -14.277448
-2.868309 -2.080284 -14.219086
-2.86524 -1.482701 -14.20387
-2.876871 -1.393552 -14.261527
-2.858581 -1.993441 -14.170858
-2.85598 -1.90896 -14.157969
-2.891268 -1.292926 -14.332901
-2.904483 -1.23278 -14.398411
-2.92331 -1.147089 -14.491744
-2.949383 -1.062802 -14.620996
-2.893929 -2.28888 -14.346088
-2.921487 -1.816865 -14.260679
-2.922193 -1.742895 -14.264125
-2.923012 -1.657045 -14.268122
-2.933972 -1.561654 -14.321622
-2.972064 -2.22066 -14.507564
-2.947648 -2.106343 -14.388378
-2.942222 -1.500116 -14.361895
-2.954306 -1.409987 -14.420877
-2.929632 -2.012903 -14.300437
-2.920471 -1.923319 -14.255718
-2.968019 -1.307702 -14.487815
-2.976461 -1.244726 -14.529026
-3.017195 -1.166494 -14.727859
-3.0115 -1.84568 -14.477833
-3.012239 -1.770544 -14.481386
-3.013096 -1.683339 -14.485506
-3.014102 -1.581036 -14.490345
-3.082153 -2.170514 -14.8175
-3.021034 -1.517959 -14.523667
-3.033588 -1.426827 -14.584025
-3.045841 -2.062395 -14.642928
-3.02619 -1.964036 -14.548454
-3.120429 -1.885116 -14.777832
-3.105188 -1.7991 -14.705653
-3.106087 -1.710497 -14.709908
0.782156 -1.868296 -14.948477
0.781797 -1.790976 -14.94161
0.781381 -1.701374 -14.933656
0.781201 -1.597075 -14.930226
0.784521 -1.536341 -14.993677
0.794629 -2.010001 -15.186851
0.721596 -1.829068 -14.636848
0.720872 -1.752417 -14.62216
0.720511 -1.664799 -14.614857
0.722437 -1.567278 -14.653916
0.727928 -2.120113 -14.765289
0.72545 -1.507558 -14.715023
0.729877 -1.419798 -14.804824
0.724476 -2.028856 -14.695279
0.722641 -1.939717 -14.658051
0.734923 -1.319778 -14.907171
0.73804 -1.257971 -14.970411
0.671095 -1.811917 -14.501692
0.670428 -1.736001 -14.487273
0.671062 -1.651588 -14.500975
0.672353 -1.55368 -14.528872
0.679277 -2.203465 -14.678492
0.675486 -2.095584 -14.596567
0.673191 -1.490126 -14.546975
0.674413 -1.397401 -14.573387
0.672809 -2.006953 -14.538731
0.672059 -1.921502 -14.522503
0.678939 -1.298699 -14.671187
0.683396 -1.240741 -14.767497
0.689777 -1.157771 -14.905375
0.684292 -2.315094 -14.786851
0.621954 -1.796317 -14.378775
0.621601 -1.721788 -14.370605
0.622391 -1.638601 -14.388887
0.623579 -1.541439 -14.416346
0.627707 -2.178146 -14.511786
0.624714 -2.073198 -14.44259
0.62435 -1.478371 -14.434168
0.625487 -1.386386 -14.46046
0.623613 -1.989897 -14.417119
0.622886 -1.905078 -14.400317
0.628523 -1.286084 -14.530643
0.630393 -1.224308 -14.573869
0.636108 -1.142131 -14.706002
0.642022 -1.058604 -14.84271
0.641053 -2.450412 -14.820324
0.631156 -2.284202 -14.591512
0.575058 -1.785355 -14.292833
0.575107 -1.712402 -14.294061
0.575596 -1.628981 -14.306214
0.576171 -1.530997 -14.320493
0.579479 -2.161504 -14.402719
0.577227 -2.059182 -14.346754
0.576543 -1.467491 -14.329745
0.577938 -1.377005 -14.364422
0.576582 -1.977722 -14.330714
0.575914 -1.893436 -14.314116
0.580724 -1.27734 -14.433663
0.58244 -1.215959 -14.476308
0.584875 -1.12885 -14.536829
0.589228 -1.044374 -14.645037
0.593814 -0.977016 -14.759008
0.597012 -2.574535 -14.838501
0.58718 -2.41271 -14.594137
0.581838 -2.263541 -14.461349
0.528729 -1.77455 -14.207992
0.529114 -1.703131 -14.218337
0.529561 -1.620155 -14.230364
0.530087 -1.522693 -14.244486
0.532315 -2.146494 -14.304375
0.530709 -2.046664 -14.261207
0.530428 -1.459527 -14.25364
0.531679 -1.36945 -14.287282
0.530119 -1.965713 -14.245359
0.529509 -1.881952 -14.22896
0.567055 -0.812227 -15.237882
0.533566 -1.268724 -14.337979
0.535132 -1.207733 -14.380057
0.537354 -1.121182 -14.439765
0.539842 -1.034383 -14.506629
0.543648 -0.966967 -14.608915
0.549934 -0.884438 -14.777828
0.543651 -2.534416 -14.608979
0.53807 -2.39009 -14.458998
0.534467 -2.247759 -14.362195
0.483479 -1.765798 -14.13944
0.483755 -1.694465 -14.14751
0.484075 -1.611615 -14.156878
0.4845 -1.514493 -14.169301
0.486081 -2.132936 -14.215553
0.485033 -2.035494 -14.184898
0.48481 -1.451662 -14.178357
0.486207 -1.362779 -14.219212
0.484495 -1.954989 -14.169168
0.483939 -1.87169 -14.152895
0.506141 -0.788919 -14.802201
0.520084 -0.735989 -15.209974
0.487814 -1.262239 -14.266236
0.488802 -1.200471 -14.295124
0.490473 -1.113626 -14.344
0.49316 -1.028278 -14.42257
0.495673 -0.959394 -14.496054
0.500162 -0.875338 -14.627353
0.504055 -2.689742 -14.741195
0.49538 -2.513072 -14.487503
0.490439 -2.370656 -14.342981
0.487887 -2.232833 -14.268361
0.438749 -1.757454 -14.07401
0.438998 -1.686453 -14.082005
0.439288 -1.60399 -14.091289
0.439627 -1.507171 -14.102186
0.440603 -2.12041 -14.133471
0.439934 -2.024839 -14.112037
0.440024 -1.445022 -14.114897
0.441174 -1.356184 -14.151796
0.439449 -1.944767 -14.096471
0.438947 -1.861914 -14.080363
0.456743 -0.780796 -14.651231
0.460832 -0.715228 -14.782394
0.442626 -1.256111 -14.198366
