1.586138 -4.277346 -9.592736
1.56908 -4.09568 -9.489571
1.543538 -2.787288 -9.335097
1.546259 -2.72051 -9.351547
1.533515 -3.314919 -9.274478
1.533625 -3.255583 -9.275146
1.552052 -2.637352 -9.386586
1.557401 -2.560575 -9.418936
1.533778 -3.173265 -9.276068
1.533945 -3.083272 -9.277081
1.563524 -2.472683 -9.45597
1.572047 -2.371909 -9.507514
1.536713 -2.986778 -9.293818
1.54018 -2.88544 -9.314788
1.647027 -1.841126 -9.960981
1.665399 -1.769841 -10.072093
1.582194 -2.280159 -9.56888
1.587887 -2.228672 -9.603313
1.684078 -1.705282 -10.18506
1.706919 -1.636439 -10.323202
1.596891 -2.147262 -9.657763
1.604895 -2.085629 -9.706176
1.688904 -1.58132 -10.409191
1.714288 -1.535071 -10.565643
1.741754 -1.499642 -10.734925
1.799418 -1.484984 -11.090324
1.52703 -3.972281 -9.411516
1.521645 -3.880587 -9.378327
1.587674 -1.990135 -9.785284
1.601389 -1.903086 -9.869811
1.515365 -3.773668 -9.339625
1.510001 -3.656236 -9.306562
1.614034 -4.676542 -9.947751
1.574806 -4.43223 -9.705973
1.506946 -3.548823 -9.287733
1.503261 -3.419268 -9.265021
1.553354 -4.266777 -9.573761
1.536689 -4.085668 -9.471049
1.512708 -2.782375 -9.323247
1.515509 -2.715957 -9.340508
1.502742 -3.308761 -9.261824
1.50285 -3.249536 -9.262489
1.521178 -2.632921 -9.375448
1.526412 -2.556258 -9.407705
1.502999 -3.16737 -9.263409
1.503162 -3.077542 -9.264416
1.532403 -2.468499 -9.444635
1.540872 -2.368074 -9.49683
1.50603 -2.981536 -9.282092
1.509422 -2.880365 -9.302998
1.613698 -1.837388 -9.945675
1.631661 -1.766209 -10.056387
1.550801 -2.276448 -9.558027
1.556373 -2.225032 -9.592367
1.649042 -1.700834 -10.163513
1.670584 -1.631366 -10.296284
1.565183 -2.143735 -9.646665
1.573145 -2.082356 -9.695737
1.653251 -1.577265 -10.387529
1.676955 -1.53009 -10.536467
1.702181 -1.493335 -10.694958
1.744844 -1.467226 -10.963016
1.495383 -3.963653 -9.395628
1.49012 -3.872187 -9.362565
1.555703 -1.987004 -9.774625
1.56912 -1.900066 -9.858926
1.483985 -3.765534 -9.324013
1.478987 -3.648986 -9.292611
1.577803 -4.658172 -9.913478
1.541027 -4.41933 -9.682417
1.476 -3.541799 -9.273845
1.472398 -3.412517 -9.251212
1.520733 -4.256311 -9.554908
1.504458 -4.075753 -9.452646
1.481982 -2.777502 -9.31143
1.484858 -2.711441 -9.329498
1.47208 -3.302655 -9.249215
1.472185 -3.243538 -9.249876
1.490403 -2.628527 -9.364338
1.495522 -2.551978 -9.396504
1.472332 -3.161524 -9.250794
1.472491 -3.071861 -9.2518
1.501383 -2.464348 -9.433326
1.509793 -2.364269 -9.486169
1.475452 -2.976338 -9.270401
1.478769 -2.875332 -9.291244
1.580497 -1.833679 -9.930408
1.598055 -1.762604 -10.040726
1.519507 -2.272767 -9.547199
1.524956 -2.221421 -9.581442
1.614358 -1.696605 -10.143162
1.634511 -1.626378 -10.26978
1.533575 -2.140236 -9.635591
1.541488 -2.07911 -9.685313
1.617843 -1.573305 -10.366376
1.639858 -1.52515 -10.507442
1.66358 -1.487668 -10.659435
1.695177 -1.453002 -10.861899
1.463875 -3.955105 -9.379822
1.458735 -3.863866 -9.346887
1.523829 -1.983898 -9.763983
1.536951 -1.89707 -9.848061
1.452741 -3.757476 -9.308482
1.448096 -3.641799 -9.278717
1.54187 -4.640036 -9.879577
1.507453 -4.406571 -9.659052
1.445177 -3.534838 -9.260017
1.441658 -3.405827 -9.237465
1.488276 -4.245947 -9.536174
1.472386 -4.065934 -9.434357
1.451363 -2.77267 -9.299652
1.454307 -2.706962 -9.318515
1.441531 -3.296602 -9.236652
1.441634 -3.237592 -9.23731
1.459729 -2.624169 -9.353255
1.464734 -2.547731 -9.385329
1.441777 -3.155728 -9.238226
1.441933 -3.066229 -9.239227
1.470464 -2.460232 -9.422046
1.478811 -2.360494 -9.475528
1.444979 -2.971183 -9.258745
1.448222 -2.870341 -9.279527
1.548003 -1.830679 -9.918878
1.564582 -1.759026 -10.025107
1.48831 -2.269115 -9.53639
1.49364 -2.21784 -9.570542
1.580512 -1.693126 -10.127175
1.599306 -1.622095 -10.247602
1.502067 -2.136766 -9.62454
1.509928 -2.075889 -9.674908
1.582733 -1.569499 -10.346124
1.603611 -1.520835 -10.482603
1.625264 -1.482051 -10.624141
1.655102 -1.446615 -10.819193
1.432505 -3.946636 -9.364101
1.427486 -3.855622 -9.331291
1.492053 -1.980816 -9.753363
1.504881 -1.894098 -9.837214
1.421633 -3.749492 -9.293033
1.417327 -3.634677 -9.264888
1.506232 -4.622134 -9.846046
1.47408 -4.393948 -9.635871
1.414477 -3.527939 -9.246252
1.411038 -3.399195 -9.223774
1.455981 -4.235684 -9.517558
1.440473 -4.056212 -9.416186
1.420875 -2.767929 -9.288078
1.423855 -2.702519 -9.307559
1.41111 -3.290641 -9.224248
1.41132 -3.231988 -9.225619
1.429155 -2.619846 -9.342201
1.434048 -2.54352 -9.374186
1.411611 -3.150603 -9.227522
1.41201 -3.061782 -9.230126
1.439648 -2.45615 -9.410797
1.447926 -2.356751 -9.46491
1.41488 -2.966638 -9.24889
1.417926 -2.865687 -9.2688
1.515812 -1.827943 -9.908669
1.531242 -1.755475 -10.009533
1.457212 -2.265493 -9.525608
1.462422 -2.214287 -9.559666
1.5468 -1.689674 -10.111236
1.564476 -1.618045 -10.226782
1.47066 -2.133324 -9.613515
1.478463 -2.072694 -9.66452
1.547822 -1.565753 -10.326146
1.567622 -1.516608 -10.458243
1.587814 -1.477026 -10.592952
1.615374 -1.440291 -10.776815
1.401273 -3.938246 -9.348463
1.396374 -3.847454 -9.315777
1.460376 -1.977759 -9.74276
1.472912 -1.89115 -9.826391
1.390661 -3.74158 -9.27766
1.386693 -3.627647 -9.251194
1.470886 -4.604458 -9.812875
1.440907 -4.381459 -9.612874
1.384477 -3.522574 -9.236409
1.381802 -3.395723 -9.218564
1.423848 -4.225523 -9.499064
1.408718 -4.046585 -9.398129
1.391651 -2.76553 -9.284267
1.394429 -2.699905 -9.302801
1.382095 -3.287808 -9.220518
1.382301 -3.229206 -9.221888
1.399291 -2.616697 -9.335235
1.403777 -2.539913 -9.365166
1.382585 -3.14789 -9.223787
1.382975 -3.059144 -9.226389
1.408935 -2.452101 -9.399577
1.41714 -2.353037 -9.454313
1.385784 -2.964077 -9.245129
1.388765 -2.863209 -9.265013
1.483717 -1.825229 -9.898477
1.498572 -1.752578 -9.997581
1.426213 -2.261901 -9.514847
1.431304 -2.210763 -9.548812
1.513226 -1.686248 -10.095342
1.530589 -1.614838 -10.211176
1.439354 -2.12991 -9.602515
1.447094 -2.069525 -9.654149
1.649132 -1.41704 -11.233019
1.51343 -1.562407 -10.308688
1.532093 -1.512679 -10.435811
1.550843 -1.472264 -10.56353
1.576129 -1.434162 -10.735762
1.370174 -3.929933 -9.332904
1.365393 -3.839361 -9.300342
1.428791 -1.974727 -9.732175
1.441037 -1.888225 -9.815585
1.360698 -3.736159 -9.268364
1.357619 -3.624532 -9.247386
1.435821 -4.587007 -9.780057
1.407927 -4.369104 -9.590057
1.355451 -3.519554 -9.232621
1.352834 -3.392817 -9.214797
1.39187 -4.215462 -9.480686
1.377115 -4.037052 -9.380184
1.362474 -2.763158 -9.280456
1.365184 -2.697569 -9.298914
1.353127 -3.28501 -9.216792
1.353328 -3.226456 -9.21816
1.369939 -2.614426 -9.331306
1.374327 -2.537701 -9.361197
1.353606 -3.145209 -9.220057
1.353987 -3.056538 -9.222652
1.379349 -2.449915 -9.395398
1.386869 -2.350072 -9.446626
1.356735 -2.961546 -9.241368
1.35965 -2.860758 -9.261225
1.451711 -1.822536 -9.888294
1.466224 -1.749966 -9.987146
1.395308 -2.258337 -9.504107
1.400281 -2.207268 -9.537981
1.479781 -1.682847 -10.079493
1.497122 -1.611971 -10.19761
1.408144 -2.126523 -9.591538
1.415816 -2.06638 -9.643794
1.583813 -1.389465 -11.019252
1.479191 -1.559096 -10.291353
1.496891 -1.508928 -10.414498
1.514105 -1.467542 -10.534264
1.537906 -1.42874 -10.699858
1.339899 -3.923724 -9.322242
1.336067 -3.835715 -9.29558
1.3973 -1.971718 -9.721605
1.409258 -1.885324 -9.804797
1.331592 -3.732944 -9.264447
1.328594 -3.621457 -9.243588
1.401034 -4.569774 -9.747585
1.375139 -4.356883 -9.567422
1.326475 -3.516573 -9.228846
1.323916 -3.389949 -9.211041
1.360048 -4.205499 -9.462425
1.345664 -4.027611 -9.362349
1.333346 -2.760814 -9.276648
1.335987 -2.695259 -9.295023
1.324208 -3.282246 -9.213073
1.324404 -3.223741 -9.214438
1.340637 -2.61218 -9.327374
1.344928 -2.535514 -9.357227
1.324677 -3.142562 -9.216332
1.325048 -3.053961 -9.218916
1.349837 -2.447795 -9.391384
1.357174 -2.348 -9.44243
1.327734 -2.959044 -9.237607
1.330585 -2.858336 -9.257442
1.419797 -1.819864 -9.878123
1.43397 -1.747375 -9.97673
1.365289 -2.256108 -9.498887
1.369839 -2.204581 -9.530544
1.447101 -1.680208 -10.068093
1.46377 -1.609125 -10.184065
1.377031 -2.123164 -9.580585
1.38463 -2.063261 -9.633455
1.543159 -1.382822 -10.971274
1.445454 -1.556199 -10.276634
1.461987 -1.505337 -10.394173
1.478096 -1.463354 -10.508707
1.499965 -1.423366 -10.664186
1.310656 -3.920371 -9.318271
1.306911 -3.832446 -9.291643
1.365903 -1.968734 -9.711057
1.377574 -1.882446 -9.79403
1.302537 -3.729774 -9.26055
1.299619 -3.618422 -9.239803
1.366522 -4.552759 -9.715458
1.342541 -4.34479 -9.544961
1.297548 -3.51363 -9.225077
1.295047 -3.387118 -9.207296
1.32838 -4.195633 -9.444277
1.315797 -4.022647 -9.354822
1.304266 -2.758498 -9.27284
1.306839 -2.692976 -9.291132
1.295337 -3.279516 -9.209358
1.295529 -3.221059 -9.210722
1.311383 -2.609958 -9.323442
1.315577 -2.533351 -9.353256
1.295795 -3.139947 -9.212614
1.296156 -3.051415 -9.21518
1.320375 -2.4457 -9.387369
1.327529 -2.345948 -9.438228
1.298782 -2.956573 -9.233851
1.301568 -2.855943 -9.253659
1.387973 -1.817213 -9.867965
1.401808 -1.744804 -9.966324
1.335459 -2.254125 -9.494609
1.339906 -2.202637 -9.526225
1.414626 -1.677713 -10.057459
1.430532 -1.6063 -10.170547
1.346933 -2.121279 -9.576184
1.353896 -2.060713 -9.62569
1.502886 -1.376248 -10.923699
1.411961 -1.553454 -10.262813
1.427507 -1.502047 -10.375806
1.442472 -1.459382 -10.484582
1.462307 -1.418041 -10.628747
1.281467 -3.917064 -9.314318
1.277808 -3.829223 -9.287724
1.33503 -1.966405 -9.703639
1.345987 -1.879592 -9.783283
1.273536 -3.726648 -9.256669
1.270696 -3.615427 -9.236032
1.333004 -4.538415 -9.688912
1.310133 -4.332829 -9.522677
1.268672 -3.510727 -9.221321
1.266229 -3.384324 -9.203563
1.297617 -4.188291 -9.431705
1.286467 -4.019173 -9.350664
1.275237 -2.75621 -9.269036
1.277741 -2.690718 -9.287238
1.266516 -3.27682 -9.20565
1.266704 -3.218411 -9.207012
1.282181 -2.607763 -9.319508
1.286278 -2.531213 -9.349285
1.266964 -3.137365 -9.208901
1.267314 -3.048899 -9.211447
1.290965 -2.443628 -9.383354
1.297936 -2.343919 -9.434021
1.269879 -2.95413 -9.230093
1.272601 -2.853579 -9.249879
1.356242 -1.814583 -9.857818
1.36974 -1.742253 -9.955932
1.305683 -2.252164 -9.490331
1.310027 -2.200714 -9.521905
1.382247 -1.675238 -10.046836
1.39772 -1.603851 -10.159304
1.316891 -2.119418 -9.571797
1.323664 -2.058851 -9.621028
1.462984 -1.369741 -10.876513
1.37858 -1.55073 -10.249017
1.393285 -1.498903 -10.358339
1.407349 -1.455766 -10.462896
1.426211 -1.414043 -10.603128
1.252326 -3.913803 -9.310384
1.248754 -3.826045 -9.283825
1.304579 -1.96463 -9.698856
1.31504 -1.877543 -9.77663
1.244581 -3.723565 -9.252808
1.241819 -3.612472 -9.232267
1.300153 -4.525803 -9.665952
1.278319 -4.322388 -9.503629
1.239843 -3.507862 -9.217576
1.237457 -3.381567 -9.19984
1.268075 -4.184692 -9.427469
1.257189 -4.01575 -9.346536
1.246253 -2.753949 -9.265234
1.248689 -2.688486 -9.283343
1.23774 -3.274158 -9.201946
1.237923 -3.215796 -9.203306
1.253024 -2.605592 -9.315572
1.257024 -2.529099 -9.345311
1.238177 -3.134816 -9.205195
1.238516 -3.046413 -9.207714
1.261601 -2.44158 -9.379336
1.26839 -2.341912 -9.429811
1.241021 -2.951717 -9.226339
1.243679 -2.851243 -9.246098
1.324597 -1.811973 -9.847682
1.337762 -1.739723 -9.945552
1.275954 -2.250224 -9.486047
1.280195 -2.198812 -9.51758
1.349958 -1.672783 -10.03623
1.365173 -1.601621 -10.14934
1.286897 -2.117576 -9.567405
1.293482 -2.057008 -9.61636
1.423449 -1.3633 -10.829714
1.463792 -1.344537 -11.13665
1.345643 -1.548406 -10.237761
1.359637 -1.496261 -10.344231
1.372981 -1.452798 -10.44575
1.391634 -1.411414 -10.587664
1.223235 -3.910589 -9.306468
1.219748 -3.822911 -9.279943
1.274181 -1.962873 -9.694071
1.284389 -1.87585 -9.771734
1.215677 -3.720526 -9.248966
1.212988 -3.609555 -9.228514
1.267491 -4.513327 -9.643172
1.248545 -4.318565 -9.499032
1.21106 -3.505034 -9.213841
1.208731 -3.378847 -9.196126
1.238586 -4.181149 -9.423265
1.227962 -4.012378 -9.342433
1.217315 -2.751715 -9.26143
1.219682 -2.686279 -9.279444
1.20901 -3.27153 -9.198248
1.209189 -3.213215 -9.199607
1.223914 -2.603446 -9.311634
1.227818 -2.52701 -9.341336
1.209437 -3.132298 -9.201492
1.209764 -3.043957 -9.203982
1.232284 -2.439556 -9.375319
1.238893 -2.339927 -9.425597
1.212209 -2.949332 -9.222584
1.214803 -2.848934 -9.242319
1.293621 -1.810197 -9.841972
1.305873 -1.737213 -9.935187
1.246275 -2.248305 -9.48176
1.250414 -2.196931 -9.513252
1.317761 -1.670347 -10.025636
1.332712 -1.599408 -10.13938
1.256954 -2.115755 -9.563009
1.263352 -2.055184 -9.611685
1.384725 -1.357363 -10.786773
1.423326 -1.338075 -11.087465
1.31294 -1.546259 -10.227573
1.326108 -1.493639 -10.33015
1.339376 -1.450528 -10.433512
1.357183 -1.408804 -10.572227
1.194195 -3.90742 -9.302571
1.190794 -3.819822 -9.276077
1.243837 -1.961135 -9.68928
1.253793 -1.874175 -9.766833
1.186822 -3.717531 -9.24514
1.184208 -3.606679 -9.224773
1.235512 -4.502788 -9.624424
1.218831 -4.314806 -9.494482
1.182326 -3.502246 -9.210118
1.180055 -3.376165 -9.192426
1.209153 -4.17766 -9.419092
1.198789 -4.009059 -9.338363
1.188426 -2.749509 -9.25763
1.190725 -2.684099 -9.275544
1.180328 -3.268935 -9.194554
1.180503 -3.210666 -9.195913
1.194852 -2.601325 -9.307693
1.198661 -2.524945 -9.33736
1.180744 -3.129814 -9.197796
1.18106 -3.041532 -9.200252
1.203018 -2.437555 -9.371302
1.209446 -2.337964 -9.42138
1.183445 -2.946978 -9.218831
1.185975 -2.846655 -9.238543
1.262753 -1.808505 -9.836627
1.27464 -1.735491 -9.929229
1.216647 -2.246407 -9.477468
1.220684 -2.19507 -9.508919
1.285658 -1.667932 -10.015059
1.30034 -1.597212 -10.129427
1.227064 -2.113955 -9.558615
1.233276 -2.053379 -9.607009
1.349517 -1.354683 -10.769595
1.383316 -1.331755 -11.039325
1.280322 -1.544129 -10.217396
1.293025 -1.491424 -10.318777
1.305962 -1.448375 -10.422012
1.322905 -1.406267 -10.557222
1.165201 -3.904299 -9.298697
1.161885 -3.816779 -9.272232
1.213543 -1.959413 -9.68448
1.223248 -1.872517 -9.76193
1.158013 -3.714578 -9.241332
1.155471 -3.603841 -9.221044
1.205431 -4.498878 -9.619745
1.18917 -4.31111 -9.489979
1.153636 -3.499495 -9.206406
1.151422 -3.373517 -9.188732
1.179768 -4.174225 -9.414948
1.169665 -4.00579 -9.334319
1.159579 -2.747329 -9.253831
1.161811 -2.681943 -9.271643
1.151689 -3.266374 -9.190867
1.151859 -3.208151 -9.192224
1.165835 -2.59923 -9.303752
1.169548 -2.522904 -9.333382
1.152095 -3.127361 -9.194105
1.152398 -3.039136 -9.196521
1.173795 -2.435578 -9.367281
1.180045 -2.336022 -9.417157
1.154723 -2.944651 -9.215078
1.15719 -2.844404 -9.234767
1.231937 -1.806829 -9.831274
1.243524 -1.733868 -9.923738
1.187065 -2.244531 -9.473174
1.191001 -2.193231 -9.504584
1.254248 -1.666338 -10.009319
1.268052 -1.595033 -10.119481
1.19722 -2.112173 -9.554215
1.203248 -2.051593 -9.602323
1.314442 -1.352021 -10.752449
1.343724 -1.325549 -10.991984
1.24779 -1.542016 -10.207226
1.260154 -1.489363 -10.308364
1.272713 -1.446318 -10.411097
1.288836 -1.403846 -10.542986
1.136255 -3.901222 -9.294836
1.133024 -3.81378 -9.268407
1.1833 -1.957711 -9.679679
1.192755 -1.870877 -9.757021
1.129251 -3.711668 -9.23754
1.126779 -3.601043 -9.217323
1.175408 -4.495036 -9.61512
1.159565 -4.307477 -9.485522
1.124992 -3.496782 -9.202703
1.122834 -3.370907 -9.18505
1.150435 -4.170844 -9.410833
1.140591 -4.002573 -9.330306
1.130778 -2.745177 -9.250035
1.132942 -2.679814 -9.267738
1.123095 -3.263847 -9.187184
1.12326 -3.205668 -9.188538
1.136863 -2.597158 -9.299808
1.14048 -2.520887 -9.329401
1.12349 -3.12494 -9.190417
1.12378 -3.03677 -9.192792
1.144619 -2.433623 -9.363258
1.150691 -2.334102 -9.412928
1.126046 -2.942354 -9.211327
1.12845 -2.842179 -9.230991
1.201177 -1.80517 -9.825914
1.212464 -1.732261 -9.918244
1.15753 -2.242675 -9.468876
1.161365 -2.191411 -9.500246
1.22291 -1.664781 -10.003698
1.236195 -1.593318 -10.11237
1.167425 -2.110412 -9.549813
1.17327 -2.049825 -9.597632
1.2795 -1.349378 -10.735333
1.30449 -1.319404 -10.945006
1.215685 -1.54035 -10.199907
1.227371 -1.487319 -10.297961
1.239691 -1.444435 -10.401327
1.254967 -1.40154 -10.529496
1.107355 -3.898189 -9.290995
1.104209 -3.810825 -9.264597
1.153108 -1.956026 -9.67487
1.162313 -1.869255 -9.752109
1.100535 -3.708802 -9.233768
1.098132 -3.598283 -9.213614
1.145441 -4.49126 -9.610541
1.130015 -4.303908 -9.481114
1.096392 -3.494107 -9.199012
1.094291 -3.368333 -9.181379
1.121151 -4.167515 -9.406748
1.111565 -3.999407 -9.326319
1.102021 -2.743051 -9.246238
1.104118 -2.677709 -9.26383
1.094544 -3.261353 -9.183508
1.094706 -3.203218 -9.184861
1.107935 -2.595111 -9.295863
1.111458 -2.518893 -9.325419
1.094929 -3.122551 -9.186735
1.095206 -3.034433 -9.189062
1.115489 -2.431692 -9.359236
1.121384 -2.332203 -9.408698
1.097413 -2.940086 -9.207577
1.099754 -2.839983 -9.227217
1.17047 -1.803528 -9.820548
1.181459 -1.73067 -9.912743
1.128043 -2.24084 -9.464574
1.131778 -2.189613 -9.495905
1.191629 -1.663239 -9.998072
1.204492 -1.591734 -10.105995
1.137677 -2.10867 -9.545405
1.143342 -2.048076 -9.592935
1.244753 -1.346818 -10.718773
1.265812 -1.313525 -10.90011
1.18374 -1.538817 -10.193374
1.195004 -1.485696 -10.290374
1.206789 -1.442607 -10.391854
1.221356 -1.399418 -10.51729
1.078504 -3.895203 -9.287172
1.075442 -3.807913 -9.260804
1.122968 -1.95436 -9.670059
1.131925 -1.867649 -9.74719
1.071866 -3.705978 -9.230013
1.069532 -3.595563 -9.209916
1.11553 -4.487551 -9.606012
1.10052 -4.300401 -9.476752
1.067838 -3.491469 -9.195329
1.065793 -3.365796 -9.177719
1.091919 -4.164242 -9.402694
1.082591 -3.996292 -9.322362
1.07331 -2.740952 -9.242441
1.075339 -2.675629 -9.259921
1.066039 -3.258892 -9.179835
1.066196 -3.2008 -9.181185
1.079055 -2.593088 -9.291913
1.082483 -2.516924 -9.321436
1.066414 -3.120195 -9.183062
1.066678 -3.032125 -9.185333
1.086405 -2.429784 -9.355211
1.092125 -2.330326 -9.404463
1.068825 -2.937845 -9.203828
1.071104 -2.837815 -9.223445
1.13982 -1.801902 -9.815176
1.150511 -1.729095 -9.907235
1.098605 -2.239026 -9.460268
1.102239 -2.187834 -9.491558
1.160405 -1.661712 -9.992438
1.172852 -1.590164 -10.099615
1.10798 -2.106949 -9.540998
1.113466 -2.046346 -9.588232
1.21017 -1.344319 -10.702579
1.230005 -1.310408 -10.878
1.151853 -1.537298 -10.186833
1.162803 -1.484215 -10.283675
1.174088 -1.440946 -10.383476
1.188023 -1.397528 -10.506714
1.049696 -3.892262 -9.283368
1.046718 -3.805046 -9.25703
1.092875 -1.952711 -9.66524
1.101585 -1.866061 -9.742268
1.04324 -3.703197 -9.226274
1.040974 -3.592881 -9.206228
1.085672 -4.483909 -9.601534
1.071074 -4.296957 -9.472436
1.039326 -3.488869 -9.191657
1.037337 -3.363293 -9.174067
1.062733 -4.16102 -9.398666
1.053661 -3.993226 -9.318431
1.044639 -2.738881 -9.238649
1.046603 -2.673575 -9.25601
1.037574 -3.256464 -9.176166
1.037727 -3.198416 -9.177516
1.050216 -2.59109 -9.287964
1.05355 -2.514979 -9.317451
1.037939 -3.117869 -9.179389
1.038189 -3.029847 -9.181606
1.057364 -2.427899 -9.351185
1.062909 -2.328471 -9.400222
1.040278 -2.935633 -9.200076
1.042494 -2.835674 -9.219673
1.109221 -1.800292 -9.809798
1.119615 -1.727535 -9.901722
1.069211 -2.237232 -9.455957
1.072745 -2.186076 -9.487209
1.129235 -1.6602 -9.986799
1.141269 -1.588609 -10.093224
1.078328 -2.105246 -9.536584
1.083635 -2.044634 -9.583524
1.175799 -1.341937 -10.687214
1.195259 -1.308293 -10.864095
1.120027 -1.535794 -10.180286
1.130664 -1.482749 -10.276968
1.141512 -1.439364 -10.375569
1.154945 -1.395855 -10.497667
1.020932 -3.889366 -9.279581
1.018038 -3.802222 -9.253273
1.062832 -1.95108 -9.660417
1.071295 -1.86449 -9.737342
1.014658 -3.700459 -9.222554
1.012458 -3.590238 -9.202551
1.055866 -4.480331 -9.597102
1.04168 -4.293576 -9.468166
1.010856 -3.486306 -9.187995
1.008923 -3.360828 -9.170426
1.033594 -4.157852 -9.39467
1.024777 -3.990212 -9.314529
1.016012 -2.736835 -9.234856
1.017908 -2.671545 -9.252094
1.009152 -3.25407 -9.172504
1.0093 -3.196063 -9.173852
1.02142 -2.589117 -9.284012
1.02466 -2.513057 -9.313463
1.009506 -3.115575 -9.175721
1.009743 -3.027599 -9.17788
1.028367 -2.426037 -9.347157
1.033738 -2.326636 -9.395976
1.011773 -2.93345 -9.196328
1.013926 -2.83356 -9.215901
1.078673 -1.798698 -9.804409
1.088772 -1.725992 -9.896202
1.039863 -2.23546 -9.451644
1.043297 -2.184338 -9.482856
1.098119 -1.658704 -9.981156
1.109745 -1.587068 -10.086827
1.048722 -2.103564 -9.53217
1.053853 -2.042941 -9.578809
1.141797 -1.339867 -10.674215
1.160689 -1.306268 -10.85083
1.08848 -1.534611 -10.175776
1.098796 -1.481578 -10.272215
1.109084 -1.437898 -10.368395
1.122101 -1.39439 -10.490085
0.992213 -3.886514 -9.275812
0.989402 -3.799442 -9.249535
1.033003 -1.949782 -9.657148
1.041305 -1.863385 -9.734756
0.986119 -3.697762 -9.21885
0.983983 -3.587632 -9.198881
1.026112 -4.476821 -9.592721
1.012336 -4.290257 -9.463943
0.982428 -3.48378 -9.184344
0.980551 -3.358398 -9.166794
1.004502 -4.154736 -9.390702
0.995939 -3.987247 -9.310654
0.987426 -2.734817 -9.231064
0.989257 -2.66954 -9.248178
0.980771 -3.251707 -9.168845
0.980914 -3.193743 -9.170191
0.992667 -2.587167 -9.280058
0.995813 -2.511158 -9.309474
0.981114 -3.113313 -9.172059
0.981338 -3.025379 -9.174153
0.999413 -2.424198 -9.343128
1.004612 -2.324823 -9.391726
0.98331 -2.931296 -9.192582
0.985401 -2.831475 -9.212133
1.048428 -1.797548 -9.801347
1.058261 -1.724917 -9.893276
1.010559 -2.233707 -9.447325
1.013893 -2.18262 -9.478499
1.067362 -1.657696 -9.978356
1.078508 -1.585877 -10.082553
1.019176 -2.10193 -9.527883
1.024198 -2.041424 -9.574829
1.108279 -1.33827 -10.664887
1.126412 -1.304476 -10.839388
1.164947 -1.28229 -11.210209
1.05708 -1.533585 -10.172205
1.067091 -1.480578 -10.268546
1.076782 -1.436527 -10.361799
1.089468 -1.393123 -10.48388
0.963538 -3.883708 -9.272061
0.960811 -3.796707 -9.245815
1.003528 -1.949108 -9.656879
1.01159 -1.862736 -9.73446
0.957625 -3.695108 -9.215162
0.955553 -3.585066 -9.195225
0.99641 -4.473375 -9.588387
0.983044 -4.286999 -9.459765
0.954044 -3.481292 -9.180703
0.952222 -3.356004 -9.163172
0.975458 -4.151673 -9.386765
0.967149 -3.984332 -9.306808
0.958884 -2.732824 -9.227273
0.960649 -2.66756 -9.244258
0.952432 -3.249378 -9.165191
0.952572 -3.191454 -9.166535
0.963958 -2.585242 -9.276102
0.967011 -2.509284 -9.305483
0.952766 -3.111082 -9.168401
0.952978 -3.023195 -9.170443
0.970552 -2.4225 -9.339554
0.975739 -2.323526 -9.389473
0.954889 -2.929169 -9.188832
0.956919 -2.829417 -9.208363
1.01838 -1.796693 -9.799805
1.027927 -1.724089 -9.891675
0.981647 -2.23276 -9.446324
0.98496 -2.181859 -9.478207
1.036763 -1.656894 -9.976702
1.047402 -1.584826 -10.079076
0.990196 -2.101418 -9.528592
0.994977 -2.040725 -9.574593
1.07519 -1.337128 -10.659077
1.092257 -1.302736 -10.828276
1.128792 -1.279637 -11.190469
1.025717 -1.532571 -10.16862
1.035429 -1.479595 -10.264901
1.044614 -1.435273 -10.355956
1.057002 -1.392013 -10.478765
0.934904 -3.880944 -9.268328
0.932259 -3.794014 -9.242109
0.974069 -1.948449 -9.6566
0.981892 -1.862102 -9.73415
0.929171 -3.692496 -9.211493
0.927162 -3.582537 -9.191577
0.966756 -4.469995 -9.584101
0.953797 -4.283803 -9.455633
0.925699 -3.47884 -9.177072
0.923932 -3.353645 -9.15956
0.946456 -4.148662 -9.382854
0.9384 -3.981468 -9.302989
0.93038 -2.730858 -9.223482
0.932196 -2.665937 -9.241487
0.924132 -3.247081 -9.16154
0.924268 -3.189198 -9.162885
0.935567 -2.584111 -9.274906
0.938679 -2.508583 -9.305757
0.924456 -3.108882 -9.164748
0.924661 -3.021056 -9.166785
0.942241 -2.422143 -9.341062
0.947196 -2.322987 -9.390193
0.926507 -2.927071 -9.185087
0.928475 -2.827385 -9.204594
0.988357 -1.795853 -9.798246
0.997618 -1.723276 -9.890059
0.95293 -2.232239 -9.447035
0.956146 -2.181347 -9.478914
1.00619 -1.656106 -9.975031
1.016333 -1.583787 -10.075584
0.961227 -2.100924 -9.529291
0.965771 -2.040041 -9.574341
1.042315 -1.336203 -10.654891
1.058395 -1.301261 -10.819259
1.092777 -1.276997 -11.170731
0.994449 -1.531654 -10.165585
1.004049 -1.478981 -10.263717
1.012542 -1.434093 -10.350537
1.024637 -1.390987 -10.474177
0.906311 -3.878227 -9.264612
0.903749 -3.791364 -9.238422
0.944629 -1.947806 -9.656304
0.952212 -1.861482 -9.733827
0.900757 -3.689925 -9.207838
0.898811 -3.580046 -9.187938
0.937151 -4.46668 -9.579862
0.924598 -4.280668 -9.451545
0.897393 -3.476425 -9.173449
0.895682 -3.351321 -9.155955
0.917498 -4.145702 -9.378971
0.909694 -3.978652 -9.299194
0.902477 -2.730613 -9.225418
0.904195 -2.66557 -9.242984
0.895872 -3.244817 -9.157895
0.896003 -3.186974 -9.159237
0.907465 -2.583755 -9.276407
0.910483 -2.508235 -9.307257
0.896185 -3.106714 -9.1611
0.896384 -3.018948 -9.163136
0.913937 -2.421806 -9.342563
0.918665 -2.322466 -9.390902
0.898246 -2.925265 -9.182171
0.900395 -2.826398 -9.204138
0.95836 -1.795027 -9.796674
0.967336 -1.722475 -9.888428
0.924225 -2.231736 -9.447738
0.927343 -2.180854 -9.479609
0.975643 -1.65533 -9.973347
0.985301 -1.582761 -10.072074
0.932271 -2.100446 -9.529979
0.936584 -2.039373 -9.574075
1.00954 -1.335358 -10.651253
1.024639 -1.299838 -10.810564
1.056906 -1.274371 -11.150998
0.963398 -1.531036 -10.164432
0.972694 -1.478378 -10.26251
0.980862 -1.43342 -10.348686
0.992357 -1.390023 -10.469959
0.877761 -3.875552 -9.260912
0.875282 -3.788757 -9.234752
0.915208 -1.947178 -9.655996
0.922553 -1.860877 -9.733492
0.872386 -3.687397 -9.204201
0.870501 -3.577594 -9.184311
0.907595 -4.463428 -9.57567
0.895447 -4.277595 -9.447502
0.869129 -3.474048 -9.169838
0.867473 -3.349033 -9.152364
0.888586 -4.142796 -9.375118
0.881033 -3.975886 -9.295431
0.874606 -2.730473 -9.227625
0.876203 -2.665226 -9.244474
0.867652 -3.242585 -9.154255
0.867779 -3.184782 -9.155596
0.879372 -2.58342 -9.277898
0.882296 -2.50791 -9.30875
0.868166 -3.105326 -9.15967
0.868611 -3.018479 -9.164373
0.885642 -2.42149 -9.344057
0.890148 -2.321965 -9.391601
0.870507 -2.925115 -9.184368
0.872589 -2.826253 -9.206339
0.928391 -1.794215 -9.795087
0.937082 -1.721689 -9.886785
0.895534 -2.231251 -9.448427
0.898555 -2.180379 -9.480296
0.945126 -1.654567 -9.971649
0.954415 -1.581921 -10.069653
0.903328 -2.099985 -9.530656
0.907417 -2.038722 -9.573796
0.976823 -1.334554 -10.647833
0.991106 -1.298627 -10.803529
1.021172 -1.271758 -11.131265
0.932368 -1.530429 -10.163258
0.941505 -1.478011 -10.26285
0.949465 -1.433146 -10.349622
0.96018 -1.389163 -10.466424
0.84925 -3.872922 -9.257231
0.846853 -3.786193 -9.231098
0.885803 -1.946566 -9.655676
0.89291 -1.860287 -9.733143
0.844053 -3.68491 -9.200581
0.842229 -3.57518 -9.180696
0.878083 -4.460242 -9.571527
0.866339 -4.274583 -9.443505
0.840902 -3.471706 -9.166235
0.839433 -3.347306 -9.150218
0.859714 -4.13994 -9.37129
0.852412 -3.97317 -9.291693
0.846736 -2.730356 -9.229824
0.848216 -2.664903 -9.245955
0.839887 -3.241995 -9.155165
0.840171 -3.184813 -9.158263
0.851282 -2.583105 -9.279379
0.854112 -2.507603 -9.310231
0.840566 -3.105435 -9.162566
0.840997 -3.018584 -9.167271
0.857351 -2.421194 -9.34554
0.86164 -2.321481 -9.392285
0.842767 -2.924991 -9.186562
0.844783 -2.826133 -9.208537
0.898445 -1.793417 -9.793482
0.906852 -1.720915 -9.885123
0.866852 -2.230783 -9.449103
0.869775 -2.17992 -9.480967
0.914789 -1.654099 -9.971634
0.923678 -1.5813 -10.06853
0.874395 -2.099541 -9.531322
0.878265 -2.038086 -9.573504
0.944179 -1.333813 -10.644813
0.957658 -1.297461 -10.796769
0.986483 -1.270326 -11.121755
0.901434 -1.529958 -10.162898
0.910344 -1.477681 -10.263347
0.918135 -1.432973 -10.351188
0.928044 -1.388317 -10.4629
0.820778 -3.870336 -9.253567
0.818462 -3.783671 -9.227461
0.856415 -1.94597 -9.655344
0.863284 -1.859712 -9.732782
0.815758 -3.682464 -9.196977
0.814024 -3.572932 -9.17742
0.848617 -4.457121 -9.56743
0.837274 -4.27163 -9.439551
0.813078 -3.470957 -9.166751
0.811934 -3.347728 -9.15386
0.830883 -4.137136 -9.367493
0.82383 -3.970502 -9.28798
0.818867 -2.730263 -9.232021
0.820233 -2.664602 -9.247425
0.812306 -3.242137 -9.158058
0.812581 -3.184953 -9.161157
0.823198 -2.582813 -9.280852
0.825935 -2.507318 -9.311705
0.812963 -3.10557 -9.16546
0.813381 -3.018717 -9.170168
0.829067 -2.420917 -9.347014
0.833142 -2.321016 -9.39296
0.815029 -2.924891 -9.188747
0.816978 -2.826036 -9.210728
0.868611 -1.792812 -9.792845
0.876835 -1.720523 -9.885561
0.838181 -2.230334 -9.449772
0.841007 -2.179479 -9.481629
0.884612 -1.653916 -9.973241
0.893127 -1.580982 -10.069244
0.845473 -2.099114 -9.531978
0.849129 -2.037466 -9.573197
0.91157 -1.33308 -10.641766
0.924389 -1.296477 -10.791417
0.952276 -1.269446 -11.11698
0.870584 -1.529615 -10.163289
0.879239 -1.477434 -10.264335
0.886894 -1.432945 -10.353703
0.895944 -1.387481 -10.459353
0.792345 -3.867793 -9.249919
0.790111 -3.781193 -9.223842
0.827043 -1.945388 -9.654994
0.833675 -1.859152 -9.732409
0.787839 -3.681633 -9.19732
0.786448 -3.573417 -9.18108
0.819196 -4.454063 -9.56338
0.808254 -4.26874 -9.435643
0.785534 -3.471428 -9.170405
0.784429 -3.348181 -9.157508
0.802093 -4.134385 -9.363725
0.795289 -3.967883 -9.284295
0.790999 -2.730193 -9.234213
0.792256 -2.664323 -9.248888
0.784723 -3.242308 -9.160948
0.784989 -3.185121 -9.164049
0.79512 -2.582541 -9.282314
0.797763 -2.507053 -9.31317
0.785358 -3.105734 -9.168354
0.785761 -3.018876 -9.173063
0.800788 -2.42066 -9.348482
0.804654 -2.320569 -9.393621
0.787292 -2.924817 -9.19093
0.789175 -2.825964 -9.212914
0.839055 -1.792775 -9.795218
0.846929 -1.720347 -9.887147
0.80952 -2.229902 -9.450426
0.812249 -2.179056 -9.482283
0.85444 -1.653745 -9.974831
0.862693 -1.580869 -10.071171
0.816561 -2.098704 -9.532623
0.820009 -2.036863 -9.572878
0.878996 -1.332357 -10.638692
0.891593 -1.296118 -10.791164
0.918113 -1.268573 -11.112145
0.839756 -1.529298 -10.163764
0.848163 -1.477229 -10.265512
0.85567 -1.432952 -10.356381
0.864264 -1.387267 -10.460393
0.764276 -3.866936 -9.250216
0.762434 -3.781906 -9.227922
0.79769 -1.944821 -9.654634
0.804388 -1.859308 -9.735694
0.760282 -3.682519 -9.201867
0.758867 -3.573936 -9.184744
0.78982 -4.451069 -9.559378
0.779277 -4.265909 -9.431779
0.757984 -3.471931 -9.174064
0.756918 -3.348667 -9.16116
0.773345 -4.131684 -9.359982
0.76679 -3.965313 -9.280637
0.763134 -2.730145 -9.236397
0.764345 -2.66427 -9.251052
0.757139 -3.242508 -9.163837
0.757396 -3.185317 -9.16694
0.767048 -2.58229 -9.28377
0.769598 -2.506809 -9.314627
0.757751 -3.105926 -9.171247
0.758141 -3.019062 -9.175957
0.772516 -2.420424 -9.349942
0.776178 -2.320141 -9.394272
0.759558 -2.924767 -9.193106
0.761374 -2.825915 -9.215094
0.809599 -1.792969 -9.798762
0.81703 -1.720183 -9.888714
0.780871 -2.229488 -9.451071
0.783503 -2.17865 -9.482921
0.824276 -1.653586 -9.976402
0.832424 -1.581072 -10.075022
0.787662 -2.098311 -9.533257
0.790908 -2.036275 -9.572544
0.846451 -1.331643 -10.63559
0.85963 -1.297003 -10.801179
0.883989 -1.267703 -11.107246
0.808976 -1.529067 -10.164717
0.817194 -1.477221 -10.267966
0.8246 -1.433245 -10.361035
0.833069 -1.387862 -10.467437
0.73656 -3.867911 -9.254811
0.734784 -3.782857 -9.2325
0.76864 -1.945004 -9.657901
0.775111 -1.859522 -9.7392
0.732709 -3.683443 -9.206427
0.731275 -3.574488 -9.188411
0.760484 -4.448138 -9.55542
0.75034 -4.263138 -9.427958
0.730425 -3.472469 -9.177728
0.729397 -3.349184 -9.164816
0.744637 -4.129047 -9.356297
0.739027 -3.966556 -9.285817
0.735268 -2.730122 -9.238576
0.736434 -2.664247 -9.253234
0.729549 -3.242737 -9.166727
0.729796 -3.185542 -9.169829
0.738979 -2.58206 -9.285214
0.741435 -2.506586 -9.316074
0.730139 -3.106145 -9.174139
0.730514 -3.019276 -9.17885
0.744246 -2.420207 -9.35139
0.74771 -2.319731 -9.394911
0.731822 -2.924742 -9.195275
0.733572 -2.825891 -9.217269
0.780132 -1.793177 -9.802297
0.787133 -1.720032 -9.890265
0.75223 -2.229092 -9.451702
0.754764 -2.178262 -9.483552
0.79421 -1.653643 -9.979187
0.802143 -1.581287 -10.078856
0.75877 -2.097935 -9.53388
0.761867 -2.03583 -9.572793
0.814762 -1.332283 -10.643207
0.827619 -1.297896 -10.811162
0.849906 -1.266839 -11.10229
0.778204 -1.528847 -10.165647
0.786223 -1.477223 -10.2704
0.793516 -1.433548 -10.365669
0.801844 -1.388467 -10.474463
0.70883 -3.868925 -9.259418
0.707121 -3.783847 -9.237092
0.739599 -1.945241 -9.661353
0.745825 -1.859751 -9.74269
0.705123 -3.684403 -9.210997
0.703675 -3.575076 -9.192086
0.73119 -4.445272 -9.551511
0.721659 -4.261703 -9.427006
0.702857 -3.473038 -9.181396
0.701868 -3.349733 -9.168477
0.716695 -4.130661 -9.362159
0.711294 -3.968096 -9.291611
0.707401 -2.730122 -9.240751
0.708523 -2.664247 -9.255413
0.701955 -3.242995 -9.169615
0.702193 -3.185796 -9.172718
0.710915 -2.581852 -9.286654
0.713277 -2.506383 -9.317514
0.702523 -3.106392 -9.177028
0.702884 -3.019516 -9.181743
0.715981 -2.42001 -9.352833
0.71925 -2.31934 -9.395538
0.704085 -2.924742 -9.19744
0.705769 -2.825891 -9.21944
0.750658 -1.793399 -9.80582
0.757251 -1.71992 -9.891947
0.723597 -2.228714 -9.452324
0.726035 -2.177891 -9.484168
0.764218 -1.653878 -9.982956
0.771879 -1.581569 -10.083027
0.729968 -2.097807 -9.535543
0.733162 -2.036301 -9.577265
0.783248 -1.333282 -10.653595
0.795564 -1.298797 -10.821117
0.816402 -1.266811 -11.104561
0.747495 -1.528748 -10.167289
0.755256 -1.477242 -10.272857
0.762419 -1.433862 -10.370281
0.770593 -1.389081 -10.481468
0.681088 -3.86998 -9.264039
0.679446 -3.784876 -9.241696
0.710551 -1.945493 -9.664791
0.716534 -1.859994 -9.746168
0.677525 -3.685403 -9.21558
0.676069 -3.575698 -9.195765
0.702085 -4.443394 -9.549638
0.693641 -4.264255 -9.434784
0.675282 -3.473641 -9.185068
0.674332 -3.350313 -9.172141
0.688735 -4.132325 -9.368048
0.683543 -3.969681 -9.297424
0.679536 -2.730145 -9.242922
0.680614 -2.664269 -9.257585
0.674358 -3.243281 -9.172501
0.674586 -3.186077 -9.175606
0.682856 -2.581665 -9.288081
0.685125 -2.5062 -9.318944
0.674904 -3.106667 -9.179916
0.67525 -3.019783 -9.184634
0.687722 -2.419834 -9.354267
0.690801 -2.318967 -9.396154
0.67635 -2.924766 -9.199598
0.677968 -2.825914 -9.221602
0.721178 -1.793634 -9.809327
0.727524 -1.720174 -9.895651
0.694976 -2.228353 -9.452932
0.697445 -2.17794 -9.486527
0.734218 -1.654125 -9.986705
0.741644 -1.581946 -10.087711
0.701413 -2.098422 -9.540497
0.704483 -2.0369 -9.582251
0.751681 -1.33429 -10.663964
0.763458 -1.299706 -10.831041
0.783018 -1.26699 -11.108541
0.716964 -1.529041 -10.171449
0.724432 -1.477572 -10.277386
0.731304 -1.434185 -10.374874
0.73931 -1.389706 -10.48846
0.65333 -3.871074 -9.268672
0.651753 -3.785945 -9.246312
0.681493 -1.94576 -9.668219
0.687231 -1.860251 -9.749632
0.649911 -3.68644 -9.220175
0.64845 -3.576354 -9.19945
0.673697 -4.446146 -9.557626
0.66559 -4.266863 -9.442606
0.647696 -3.474278 -9.188745
0.646784 -3.350926 -9.175811
0.660751 -4.134035 -9.37396
0.655768 -3.971313 -9.303267
0.651667 -2.730191 -9.245087
0.652701 -2.664315 -9.259754
0.646754 -3.243596 -9.175385
0.646973 -3.186388 -9.178493
0.654798 -2.581499 -9.289501
0.656973 -2.506038 -9.320367
0.647277 -3.106969 -9.182805
0.64761 -3.020077 -9.187523
0.659463 -2.419677 -9.355692
0.662376 -2.318674 -9.397006
0.648612 -2.924815 -9.201752
0.650164 -2.825963 -9.223763
0.69179 -1.794154 -9.814301
0.697784 -1.720442 -9.899339
0.666624 -2.228892 -9.457272
0.669031 -2.178592 -9.491429
0.704221 -1.65442 -9.990657
0.711391 -1.582334 -10.092381
0.672838 -2.099054 -9.545442
0.675784 -2.037516 -9.587231
0.720064 -1.335308 -10.674322
0.73133 -1.300671 -10.841333
0.752755 -1.272473 -11.158932
0.686612 -1.529772 -10.178427
0.693592 -1.477913 -10.281894
0.700279 -1.434737 -10.381023
0.707997 -1.39034 -10.495431
0.625556 -3.87221 -9.273319
0.624046 -3.787052 -9.25094
0.652425 -1.946042 -9.67163
0.657977 -1.860684 -9.753931
0.622282 -3.687515 -9.224785
0.620821 -3.577043 -9.203136
0.645276 -4.448958 -9.565661
0.637506 -4.26953 -9.450473
0.620099 -3.474947 -9.192429
0.619226 -3.351571 -9.179486
0.632745 -4.135794 -9.379899
0.627971 -3.972989 -9.309129
0.623797 -2.730261 -9.247246
0.624787 -2.664382 -9.261917
0.619144 -3.243942 -9.17827
0.619354 -3.186726 -9.181376
0.626742 -2.581354 -9.290912
0.628825 -2.505897 -9.321779
0.619645 -3.1073 -9.185692
0.619963 -3.020399 -9.190413
0.631208 -2.419539 -9.357107
0.634291 -2.319623 -9.402808
0.620873 -2.92489 -9.2039
0.622358 -2.826035 -9.225917
0.662466 -1.794911 -9.820484
0.668033 -1.720722 -9.903011
0.638293 -2.229574 -9.462135
0.640599 -2.179261 -9.49632
0.674255 -1.654834 -9.995239
0.68118 -1.58287 -10.097896
0.644246 -2.099703 -9.550379
0.647067 -2.038149 -9.592202
0.688396 -1.336335 -10.684661
0.699153 -1.301645 -10.851613
0.722423 -1.27836 -11.212787
0.656229 -1.530515 -10.185392
0.662736 -1.478264 -10.28638
0.669273 -1.435394 -10.387848
0.67666 -1.391 -10.502499
0.597766 -3.873386 -9.27798
0.596323 -3.788199 -9.255583
0.623347 -1.946339 -9.675029
0.628824 -1.861478 -9.760035
0.594636 -3.688629 -9.229404
0.593182 -3.577768 -9.206832
0.616822 -4.451832 -9.573746
0.609389 -4.272255 -9.458386
0.592492 -3.47565 -9.196115
0.591657 -3.352247 -9.183166
0.604717 -4.137601 -9.385864
0.600152 -3.974712 -9.315018
0.595925 -2.730354 -9.249399
0.59687 -2.664473 -9.264074
0.591528 -3.244315 -9.181151
0.591728 -3.187093 -9.184262
0.598689 -2.581229 -9.292311
0.600727 -2.505977 -9.323932
0.592006 -3.107658 -9.188578
0.59231 -3.020747 -9.193301
0.603252 -2.420614 -9.363126
0.606208 -2.32069 -9.409005
0.593131 -2.924988 -9.206042
0.59455 -2.82613 -9.228064
0.633117 -1.795682 -9.826658
0.638285 -1.721051 -9.906873
0.609944 -2.230275 -9.466991
0.612148 -2.179949 -9.501205
0.644273 -1.655262 -9.999809
0.651035 -1.583632 -10.104768
0.615634 -2.100368 -9.555305
0.618331 -2.038798 -9.597166
0.65668 -1.337372 -10.694983
0.666927 -1.302627 -10.861862
0.691802 -1.284295 -11.266986
0.62597 -1.53164 -10.194817
0.631866 -1.478625 -10.290846
0.63824 -1.436063 -10.394655
0.645412 -1.391923 -10.511466
0.569962 -3.874601 -9.282652
0.568586 -3.789385 -9.260237
0.594376 -1.947023 -9.680265
0.599648 -1.862287 -9.766128
0.566977 -3.68978 -9.234036
0.565534 -3.578526 -9.210529
0.588335 -4.454767 -9.581876
0.581241 -4.275038 -9.466343
0.564875 -3.476385 -9.199805
0.56408 -3.352956 -9.18685
0.576667 -4.139456 -9.391855
0.572312 -3.97648 -9.32093
0.568052 -2.730471 -9.25155
0.568954 -2.664587 -9.266229
0.563907 -3.244718 -9.184035
0.564098 -3.18749 -9.187146
0.570768 -2.581701 -9.295773
0.572871 -2.50714 -9.33003
0.564363 -3.108045 -9.191465
0.564653 -3.021123 -9.196189
0.57528 -2.421742 -9.369267
0.578101 -2.321777 -9.415198
0.565389 -2.925112 -9.208179
0.566742 -2.826251 -9.230208
0.603743 -1.796468 -9.832821
0.608565 -1.721504 -9.911362
0.581578 -2.230993 -9.471836
0.583681 -2.180653 -9.506079
0.614276 -1.655701 -10.004362
0.620862 -1.584406 -10.111628
0.587005 -2.101051 -9.560225
0.589578 -2.039464 -9.602119
0.62491 -1.338419 -10.70529
0.634647 -1.303619 -10.872091
0.660883 -1.29028 -11.321533
0.595719 -1.532926 -10.20522
0.601149 -1.47942 -10.298239
0.607174 -1.436741 -10.401443
0.614118 -1.392857 -10.520417
0.542139 -3.875858 -9.28734
0.540829 -3.790611 -9.264906
0.565425 -1.947876 -9.686259
0.570443 -1.863111 -9.772212
0.539299 -3.69097 -9.238686
0.537871 -3.579318 -9.214232
0.55981 -4.457765 -9.590055
0.553055 -4.27788 -9.474346
0.537245 -3.477154 -9.203504
0.536488 -3.353697 -9.190539
0.548591 -4.141359 -9.397869
0.544446 -3.978295 -9.326869
0.540216 -2.730819 -9.2544
0.54124 -2.665751 -9.271949
0.536277 -3.24515 -9.186916
0.536458 -3.187914 -9.190029
0.542985 -2.582916 -9.301829
0.544987 -2.508325 -9.336123
0.536711 -3.108458 -9.194348
0.536987 -3.021525 -9.199076
0.54728 -2.422892 -9.375406
0.549964 -2.322885 -9.421391
0.537642 -2.925261 -9.210312
0.538929 -2.826395 -9.232347
0.574363 -1.797339 -9.839368
0.57894 -1.722306 -9.917774
0.553191 -2.231729 -9.476674
0.555192 -2.181375 -9.510944
0.584339 -1.656378 -10.010261
0.590656 -1.585193 -10.118479
0.558355 -2.101751 -9.565139
0.560818 -2.040201 -9.607327
0.593088 -1.339476 -10.715581
0.602316 -1.304618 -10.882296
0.629666 -1.296315 -11.376441
0.565416 -1.534225 -10.215621
0.570644 -1.480866 -10.31007
0.576076 -1.437429 -10.408214
0.582781 -1.393801 -10.529355
0.514298 -3.877154 -9.292039
0.513055 -3.791875 -9.269586
0.536448 -1.948746 -9.692244
0.541211 -1.863949 -9.778288
0.511603 -3.692199 -9.243345
0.510197 -3.580145 -9.217942
0.531248 -4.460824 -9.598281
0.524834 -4.28078 -9.482396
0.509602 -3.477956 -9.207206
0.508884 -3.354469 -9.194231
0.52049 -4.143311 -9.403911
0.516556 -3.980155 -9.332831
0.512619 -2.732508 -9.261714
0.513592 -2.667403 -9.279286
0.508639 -3.245611 -9.189797
0.508811 -3.188367 -9.19291
0.515175 -2.584154 -9.307881
0.517075 -2.509531 -9.342216
0.50905 -3.1089 -9.197233
0.509312 -3.021955 -9.201961
0.519252 -2.424062 -9.381541
0.5218 -2.324012 -9.427577
0.509892 -2.925436 -9.21244
0.511206 -2.827085 -9.236185
0.544991 -1.798349 -9.846581
0.549336 -1.723282 -9.925093
0.524784 -2.232483 -9.481503
0.526683 -2.182115 -9.515804
0.554422 -1.657204 -10.016972
0.560427 -1.586017 -10.125472
0.529702 -2.102537 -9.570358
0.532191 -2.041547 -9.615314
0.561214 -1.340543 -10.725858
0.570586 -1.307125 -10.904972
0.535061 -1.535538 -10.226021
0.540233 -1.482751 -10.32487
0.545154 -1.438674 -10.418919
0.551399 -1.394755 -10.538273
0.486439 -3.878491 -9.296753
0.485263 -3.79318 -9.274282
0.507445 -1.94963 -9.698218
0.511993 -1.864953 -9.785143
0.483888 -3.693465 -9.248016
0.482509 -3.581006 -9.221656
0.502649 -4.463946 -9.606558
0.496576 -4.28374 -9.490492
0.481947 -3.478792 -9.210913
0.481268 -3.355274 -9.19793
0.492363 -4.145311 -9.409978
0.48864 -3.982062 -9.33882
0.484988 -2.734222 -9.26903
0.485909 -2.669079 -9.286626
0.480993 -3.246101 -9.192677
0.481156 -3.188848 -9.195791
0.487337 -2.585413 -9.313929
0.489136 -2.510758 -9.348303
0.481382 -3.10937 -9.200115
0.48163 -3.022412 -9.204846
0.491196 -2.425253 -9.387676
0.493607 -2.325159 -9.433764
0.482271 -2.926441 -9.217102
0.48365 -2.828854 -9.243464
0.515585 -1.799373 -9.85379
0.519725 -1.72436 -9.932916
0.496357 -2.233256 -9.486323
0.498154 -2.182873 -9.520653
0.524473 -1.658044 -10.023673
0.530335 -1.587362 -10.135703
0.501169 -2.103935 -9.578276
0.503525 -2.042911 -9.623302
0.529323 -1.341703 -10.73678
0.539429 -1.311336 -10.941783
0.504655 -1.536864 -10.236418
0.509746 -1.484651 -10.339686
0.514395 -1.440535 -10.43399
0.520103 -1.396062 -10.549767
0.458562 -3.879869 -9.301481
0.457454 -3.794524 -9.27899
0.478416 -1.95053 -9.704182
0.482758 -1.866023 -9.792257
0.456158 -3.69477 -9.252702
0.45481 -3.581901 -9.225375
0.474172 -4.468625 -9.618102
0.468282 -4.286758 -9.498634
0.45428 -3.479661 -9.214626
0.45364 -3.356111 -9.201635
0.464212 -4.14736 -9.416073
0.4607 -3.984015 -9.344831
0.457323 -2.735961 -9.276346
0.458192 -2.67078 -9.293969
0.45334 -3.246619 -9.195556
0.453494 -3.189359 -9.198674
0.459474 -2.586694 -9.319972
0.461171 -2.512008 -9.354389
0.45374 -3.110094 -9.20367
0.454153 -3.024308 -9.212032
0.463114 -2.426464 -9.393804
0.465389 -2.326326 -9.439946
0.45476 -2.928292 -9.224347
0.456061 -2.830648 -9.250745
0.486146 -1.800412 -9.860993
0.490191 -1.725854 -9.943046
0.467913 -2.23405 -9.49115
0.469727 -2.184212 -9.527954
0.494496 -1.658896 -10.030361
0.500194 -1.58872 -10.145931
0.472599 -2.105352 -9.586193
0.474822 -2.044293 -9.631288
0.498089 -1.34481 -10.763196
0.508065 -1.31558 -10.978777
0.474192 -1.538203 -10.246816
0.479177 -1.486567 -10.354519
0.483553 -1.44241 -10.449082
0.489164 -1.398584 -10.570345
0.430665 -3.881287 -9.306223
0.429623 -3.795907 -9.28371
0.449387 -1.951578 -9.710794
0.453486 -1.867108 -9.799364
0.428405 -3.696114 -9.257401
0.427096 -3.582831 -9.2291
0.445657 -4.473598 -9.630194
0.439948 -4.289835 -9.506824
0.426598 -3.480563 -9.218345
0.425996 -3.35698 -9.205346
0.436031 -4.149457 -9.422193
0.432731 -3.986015 -9.350869
0.429621 -2.737726 -9.283667
0.430437 -2.672506 -9.301315
0.425706 -3.247396 -9.199081
0.425961 -3.190949 -9.204588
0.43158 -2.587998 -9.326015
0.433175 -2.513279 -9.36047
0.426315 -3.112541 -9.212238
0.426703 -3.026689 -9.220616
0.435001 -2.427697 -9.399932
0.437139 -2.327513 -9.446125
0.427211 -2.93017 -9.231591
0.428434 -2.832469 -9.258031
0.456671 -1.801466 -9.868189
0.460604 -1.727364 -9.953176
0.439582 -2.235557 -9.498923
0.441288 -2.185692 -9.535783
0.464485 -1.659761 -10.037039
0.469997 -1.590092 -10.156157
0.443987 -2.106787 -9.59411
0.446077 -2.045693 -9.639271
0.466709 -1.34794 -10.789701
0.47651 -1.319899 -11.016303
0.443761 -1.539852 -10.259185
0.448527 -1.488497 -10.369369
0.452645 -1.444354 -10.464573
0.458113 -1.401124 -10.590973
0.402746 -3.882746 -9.310976
0.401772 -3.797331 -9.288447
0.420403 -1.952999 -9.719177
0.424179 -1.868208 -9.806462
0.400633 -3.697496 -9.262114
0.399366 -3.583795 -9.232831
0.417081 -4.478653 -9.642378
0.411574 -4.292973 -9.515061
0.398901 -3.4815 -9.222069
0.398447 -3.358804 -9.211589
0.407823 -4.151604 -9.428339
0.404734 -3.988062 -9.356934
0.401882 -2.739517 -9.290993
0.402646 -2.674257 -9.308666
0.398276 -3.249978 -9.207639
0.398515 -3.193488 -9.213155
0.403658 -2.589324 -9.332051
0.40515 -2.514571 -9.366548
0.398847 -3.11502 -9.220819
0.39921 -3.029101 -9.229211
0.406859 -2.42895 -9.406055
0.408955 -2.329266 -9.454515
0.399626 -2.932075 -9.238842
0.400771 -2.834316 -9.265318
0.427267 -1.802991 -9.877872
0.430963 -1.728889 -9.963313
0.411212 -2.237084 -9.506695
0.412809 -2.187191 -9.543611
0.434497 -1.660856 -10.045018
0.439747 -1.591478 -10.166383
0.415336 -2.10824 -9.602026
0.417292 -2.047111 -9.647254
0.435232 -1.351245 -10.81752
0.444803 -1.324417 -11.055405
0.413354 -1.541844 -10.273749
0.417799 -1.490443 -10.384231
0.421844 -1.446959 -10.48477
0.426949 -1.403682 -10.611644
0.374859 -3.88476 -9.316979
0.373902 -3.798794 -9.293196
0.391417 -1.95463 -9.728518
0.394839 -1.869325 -9.813557
0.372842 -3.698916 -9.266838
0.371631 -3.584865 -9.23675
0.388445 -4.48379 -9.654653
0.383162 -4.296169 -9.523345
0.371353 -3.483987 -9.22982
0.371024 -3.36205 -9.221654
0.379588 -4.153799 -9.434512
0.376712 -3.990154 -9.363023
0.374108 -2.741332 -9.298319
0.374821 -2.676032 -9.316019
0.370805 -3.252593 -9.216206
0.371027 -3.196059 -9.221731
0.375749 -2.590948 -9.339082
0.377098 -2.515885 -9.37262
0.371336 -3.117529 -9.229408
0.371674 -3.031544 -9.237815
0.378728 -2.430473 -9.413135
0.380778 -2.331328 -9.464075
0.372056 -2.934394 -9.247313
0.373074 -2.836189 -9.272608
0.397828 -1.804584 -9.887846
0.401272 -1.730431 -9.97345
0.382805 -2.23863 -9.514462
0.384292 -2.188708 -9.551435
0.404702 -1.66291 -10.058707
0.409445 -1.592878 -10.176602
0.386646 -2.109711 -9.609936
0.388503 -2.048726 -9.656081
0.403743 -1.355065 -10.84937
0.412873 -1.328971 -11.094717
0.382865 -1.543852 -10.28833
0.386987 -1.492405 -10.399116
0.390928 -1.449584 -10.505014
0.395667 -1.406259 -10.632366
0.346943 -3.886832 -9.32304
0.346009 -3.800298 -9.297959
0.36238 -1.956279 -9.737862
0.365549 -1.87091 -9.823025
0.345143 -3.701613 -9.274677
0.344173 -3.589055 -9.248625
0.359743 -4.48901 -9.667022
0.354707 -4.299427 -9.531679
0.34385 -3.487394 -9.239923
0.343545 -3.365335 -9.231741
0.351322 -4.156044 -9.440714
0.348658 -3.992295 -9.369139
0.346296 -2.743173 -9.305652
0.346955 -2.677833 -9.323376
0.343286 -3.25524 -9.224783
0.343492 -3.198662 -9.23032
0.347815 -2.592695 -9.346472
0.349027 -2.517316 -9.379049
0.343778 -3.12007 -9.23801
0.344092 -3.034017 -9.246431
0.350648 -2.432634 -9.422607
0.352547 -2.333412 -9.473643
0.344446 -2.93679 -9.255946
0.345337 -2.838089 -9.279902
0.368332 -1.806194 -9.897824
0.371524 -1.731988 -9.98359
0.354355 -2.240196 -9.522231
0.355733 -2.190245 -9.559257
0.374875 -1.665185 -10.07364
0.379087 -1.594291 -10.186825
0.357933 -2.111318 -9.618379
0.359679 -2.050441 -9.665296
0.372073 -1.358914 -10.881355
0.38072 -1.333561 -11.134233
0.352294 -1.545875 -10.302923
0.356093 -1.494382 -10.414013
0.359898 -1.452227 -10.525305
0.364269 -1.408855 -10.653138
0.319147 -3.89078 -9.333512
0.318326 -3.804608 -9.309508
0.333293 -1.957946 -9.747211
0.336221 -1.872582 -9.832862
0.317544 -3.705995 -9.286654
0.316651 -3.59329 -9.260536
0.330977 -4.494314 -9.679485
0.326209 -4.302744 -9.54006
0.316293 -3.49084 -9.250051
0.316012 -3.368657 -9.24185
0.323025 -4.158338 -9.446942
0.320615 -3.994978 -9.376446
0.318445 -2.74504 -9.312986
0.319052 -2.679659 -9.330737
0.315759 -3.258298 -9.234444
0.315912 -3.201298 -9.238922
0.319856 -2.594578 -9.354263
0.321025 -2.519567 -9.388444
0.316176 -3.122643 -9.246622
0.316464 -3.036521 -9.25506
0.322517 -2.434819 -9.432086
0.324266 -2.33552 -9.48322
0.31679 -2.939216 -9.264589
0.317563 -2.840014 -9.287199
0.338784 -1.80782 -9.907804
0.341826 -1.73409 -9.996785
0.325911 -2.242095 -9.531329
0.327133 -2.191801 -9.56708
0.344966 -1.667477 -10.088598
0.348674 -1.595719 -10.197043
0.3292 -2.113096 -9.627513
0.330807 -2.052176 -9.674513
0.340221 -1.36279 -10.913474
0.349675 -1.343308 -11.216719
0.321643 -1.547915 -10.317535
0.325116 -1.496375 -10.42893
