6.313532 -1.101926 -11.511675
5.491078 -2.292422 -10.012068
5.50916 -2.180533 -10.045038
5.51197 -3.376626 -10.05016
5.495204 -3.279925 -10.019591
5.823785 -4.193983 -10.618703
5.478171 -3.157979 -9.988534
5.469481 -3.050668 -9.972691
5.692214 -3.995186 -10.378807
5.631774 -3.840244 -10.268603
5.459641 -2.929136 -9.954748
5.457468 -2.793415 -9.950785
5.582844 -3.681098 -10.179389
5.539039 -3.520357 -10.099517
5.52841 -2.096499 -10.080137
5.55029 -2.000983 -10.12003
5.459152 -2.668962 -9.953857
5.460088 -2.599788 -9.955564
5.570329 -1.913492 -10.15657
5.603073 -1.822321 -10.216272
5.467876 -2.494252 -9.969764
5.477031 -2.414611 -9.986456
5.701819 -1.488111 -10.471092
5.73047 -1.434353 -10.523709
5.764208 -1.371345 -10.585666
5.825811 -1.301333 -10.698797
5.58441 -1.751074 -10.255476
5.609343 -1.682166 -10.301265
5.867354 -1.255437 -10.77509
5.931567 -1.188044 -10.893013
5.630555 -1.623545 -10.340218
5.66106 -1.564587 -10.396242
6.037963 -1.116441 -11.088403
6.139221 -1.077433 -11.274359
5.44904 -2.28746 -10.006877
5.467047 -2.175839 -10.039947
5.46896 -3.368818 -10.043459
5.452363 -3.272363 -10.01298
5.890296 -4.343405 -10.817221
5.745494 -4.160498 -10.551299
5.435844 -3.150919 -9.982643
5.42724 -3.043858 -9.966842
5.645964 -3.984652 -10.368517
5.58617 -3.830226 -10.25871
5.417497 -2.922609 -9.948949
5.41559 -2.787319 -9.945447
5.538602 -3.672136 -10.171352
5.495249 -3.511853 -10.091737
5.486108 -2.09197 -10.07495
5.507773 -1.996643 -10.114737
5.417257 -2.663135 -9.948509
5.418184 -2.594112 -9.950212
5.527617 -1.909327 -10.15118
5.56007 -1.818342 -10.210776
5.426064 -2.488875 -9.964683
5.43513 -2.409398 -9.981333
5.657531 -1.484783 -10.464784
5.685897 -1.431129 -10.517253
5.719158 -1.368211 -10.578776
5.775242 -1.297228 -10.682516
5.541344 -1.747255 -10.249873
5.566031 -1.678481 -10.295537
5.816295 -1.251449 -10.758451
5.87706 -1.183688 -10.87085
5.587032 -1.619975 -10.334382
5.617179 -1.561112 -10.390145
5.976467 -1.11123 -11.054723
6.065971 -1.070511 -11.220279
5.407176 -2.282539 -10.001701
5.425107 -2.171183 -10.034867
5.426153 -3.361081 -10.036801
5.409723 -3.264869 -10.006412
5.79246 -4.295071 -10.714363
5.668497 -4.127623 -10.485069
5.393703 -3.143919 -9.976779
5.385185 -3.037107 -9.961023
5.59997 -3.974222 -10.358315
5.540817 -3.820307 -10.248899
5.375539 -2.916139 -9.943181
5.37389 -2.781274 -9.940131
5.494583 -3.663257 -10.163379
5.451677 -3.503428 -10.084015
5.443982 -2.087477 -10.069779
5.465432 -1.992338 -10.109457
5.375541 -2.657358 -9.943185
5.376458 -2.588483 -9.944881
5.485081 -1.905195 -10.145802
5.517244 -1.814394 -10.205296
5.384426 -2.483544 -9.95962
5.393403 -2.404227 -9.976225
5.613434 -1.481482 -10.458493
5.641515 -1.427931 -10.510812
5.674443 -1.365136 -10.572161
5.728145 -1.293873 -10.672214
5.498461 -1.743468 -10.244285
5.522904 -1.674827 -10.289825
5.765549 -1.247496 -10.741901
5.825593 -1.17991 -10.85377
5.543697 -1.616435 -10.328565
5.573483 -1.557665 -10.384061
5.918421 -1.106616 -11.02672
5.997849 -1.064432 -11.174705
5.366426 -2.278056 -9.998287
5.383976 -2.16682 -10.030986
5.383545 -3.353411 -10.030183
5.367283 -3.257443 -9.999885
5.714095 -4.260752 -10.646035
5.618806 -4.114411 -10.468502
5.351751 -3.136981 -9.970947
5.343318 -3.030415 -9.955235
5.554235 -3.963896 -10.348199
5.495717 -3.810486 -10.239173
5.333768 -2.909725 -9.937443
5.332369 -2.77528 -9.934836
5.450785 -3.654461 -10.15546
5.408324 -3.495082 -10.076348
5.40203 -2.083021 -10.064623
5.423271 -1.988069 -10.104197
5.334005 -2.651629 -9.937883
5.334913 -2.582902 -9.939574
5.442726 -1.901098 -10.140445
5.4746 -1.810478 -10.199829
5.343317 -2.47842 -9.955232
5.352435 -2.399361 -9.97222
5.569527 -1.478207 -10.452218
5.597325 -1.424758 -10.504388
5.629923 -1.362085 -10.565563
5.682893 -1.290911 -10.664971
5.455759 -1.739711 -10.238713
5.479959 -1.671202 -10.284129
5.717982 -1.244201 -10.730824
5.774444 -1.176164 -10.836782
5.500545 -1.612923 -10.322762
5.529976 -1.554247 -10.377995
5.863081 -1.102469 -11.003127
5.933452 -1.058959 -11.135192
6.110245 -1.008175 -11.466975
5.329523 -2.275185 -10.001809
5.346651 -2.163967 -10.033952
5.341138 -3.345812 -10.023606
5.32504 -3.250083 -9.993396
5.637032 -4.227062 -10.578905
5.571062 -4.102521 -10.455099
5.309987 -3.130102 -9.965145
5.301637 -3.023781 -9.949476
5.508755 -3.953672 -10.33817
5.450866 -3.800762 -10.22953
5.292182 -2.903366 -9.931732
5.292865 -2.770299 -9.933014
5.40721 -3.645748 -10.147601
5.365186 -3.486813 -10.068737
5.364502 -2.08025 -10.067454
5.384786 -1.985125 -10.105519
5.296248 -2.64775 -9.939363
5.29813 -2.5796 -9.942894
5.403359 -1.898021 -10.140375
5.432998 -1.806882 -10.195999
5.306602 -2.475311 -9.958795
5.315647 -2.396347 -9.975768
5.525809 -1.474958 -10.445959
5.553329 -1.421611 -10.497983
5.585598 -1.359059 -10.558985
5.637844 -1.287973 -10.657749
5.416837 -1.73714 -10.23996
5.439511 -1.668316 -10.282824
5.672574 -1.241351 -10.723404
5.723866 -1.172503 -10.820364
5.458791 -1.609798 -10.319269
5.486655 -1.550855 -10.371943
5.810194 -1.098747 -10.98356
5.873367 -1.054206 -11.102982
6.014018 -0.99795 -11.368868
5.292714 -2.272342 -10.005319
5.309424 -2.161141 -10.036906
5.298931 -3.338281 -10.017071
5.282995 -3.242789 -9.986947
5.587626 -4.213882 -10.562819
5.523627 -4.090761 -10.441835
5.268409 -3.123285 -9.959373
5.261864 -3.018192 -9.947
5.463533 -3.943553 -10.328233
5.406262 -3.791135 -10.21997
5.255663 -2.899756 -9.935279
5.25658 -2.76698 -9.937011
5.363852 -3.637116 -10.139798
5.322361 -3.478685 -10.061362
5.327127 -2.077523 -10.070373
5.347242 -1.982513 -10.108397
5.259936 -2.644576 -9.943356
5.261803 -2.576507 -9.946884
5.365661 -1.895516 -10.143216
5.39469 -1.804362 -10.198094
5.26998 -2.472231 -9.962341
5.27895 -2.393359 -9.979299
5.483056 -1.471945 -10.441207
5.509516 -1.418489 -10.491593
5.54146 -1.356058 -10.552424
5.592986 -1.285058 -10.650543
5.37844 -1.734724 -10.241991
5.400922 -1.665987 -10.284801
5.627363 -1.238525 -10.716005
5.678127 -1.169809 -10.812675
5.420039 -1.607542 -10.321205
5.446559 -1.548357 -10.371707
5.759587 -1.095428 -10.967796
5.817972 -1.050256 -11.078977
5.933355 -0.990215 -11.298697
5.255992 -2.269526 -10.008816
5.272285 -2.15834 -10.039844
5.256915 -3.330817 -10.010573
5.241712 -3.235913 -9.981624
5.53976 -4.201759 -10.549187
5.476492 -4.079128 -10.428708
5.231239 -3.119046 -9.96168
5.225814 -3.014715 -9.951348
5.418554 -3.933532 -10.318378
5.361898 -3.781602 -10.210489
5.219663 -2.89642 -9.939636
5.220378 -2.763693 -9.940998
5.320709 -3.628567 -10.132055
5.280107 -3.470872 -10.054737
5.289843 -2.074822 -10.073277
5.30979 -1.979925 -10.111262
5.223707 -2.641433 -9.947337
5.225558 -2.573443 -9.950861
5.328057 -1.893033 -10.146047
5.35648 -1.801863 -10.200172
5.233443 -2.46918 -9.965876
5.24234 -2.390401 -9.982819
5.443363 -1.469737 -10.442009
5.468773 -1.416139 -10.490753
5.498548 -1.353335 -10.547871
5.548324 -1.282166 -10.643355
5.340145 -1.73233 -10.244005
5.362436 -1.663678 -10.286767
5.582349 -1.23572 -10.708627
5.632593 -1.167137 -10.805009
5.38139 -1.605307 -10.323127
5.407184 -1.546049 -10.372607
5.709274 -1.092136 -10.952106
5.764874 -1.046687 -11.058765
5.863927 -0.984286 -11.248777
5.219357 -2.266736 -10.012299
5.23524 -2.155564 -10.042766
5.217669 -3.325062 -10.009059
5.205798 -3.232321 -9.986288
5.492202 -4.18977 -10.535698
5.429653 -4.067621 -10.415709
5.19523 -3.115483 -9.966016
5.189848 -3.011276 -9.955692
5.373821 -3.923611 -10.308607
5.317774 -3.772164 -10.201092
5.183747 -2.893119 -9.943987
5.184261 -2.760439 -9.944973
5.277776 -3.620095 -10.124365
5.238049 -3.463131 -10.048155
5.252651 -2.072145 -10.076165
5.272433 -1.977361 -10.114115
5.187563 -2.638321 -9.951308
5.189399 -2.57041 -9.954829
5.290548 -1.890573 -10.148864
5.318372 -1.799386 -10.202238
5.196993 -2.466157 -9.969398
5.205817 -2.38747 -9.986325
5.403784 -1.467548 -10.442801
5.428971 -1.41402 -10.491474
5.458485 -1.351299 -10.54851
5.505135 -1.279594 -10.63866
5.30195 -1.729956 -10.246007
5.324052 -1.661389 -10.288717
5.537532 -1.232938 -10.701268
5.587259 -1.164485 -10.797364
5.342844 -1.60309 -10.325034
5.367922 -1.543762 -10.373497
5.661849 -1.089372 -10.94151
5.7142 -1.043529 -11.042679
5.805271 -0.980115 -11.218674
6.05363 -0.938576 -11.698627
5.182811 -2.263973 -10.01577
5.198286 -2.152814 -10.045675
5.673072 -4.496781 -10.9632
5.181744 -3.321399 -10.013708
5.169968 -3.228768 -9.990951
5.444946 -4.17791 -10.522346
5.38311 -4.056239 -10.402848
5.159305 -3.111958 -9.970345
5.153967 -3.007872 -9.960029
5.329332 -3.913789 -10.298921
5.273886 -3.762819 -10.191772
5.147913 -2.889852 -9.94833
5.148228 -2.757217 -9.948939
5.235053 -3.611703 -10.116729
5.199027 -3.45735 -10.047107
5.215552 -2.069492 -10.079042
5.235169 -1.97482 -10.116952
5.151502 -2.635239 -9.955266
5.153325 -2.567407 -9.958788
5.253132 -1.888135 -10.151666
5.280363 -1.796931 -10.204289
5.16063 -2.463164 -9.972905
5.169382 -2.384567 -9.989819
5.364319 -1.465377 -10.443578
5.389286 -1.411919 -10.492184
5.41854 -1.34928 -10.549136
5.46404 -1.277494 -10.63772
5.263858 -1.727603 -10.247993
5.285772 -1.659121 -10.290656
5.495543 -1.230768 -10.699051
5.542125 -1.161855 -10.789742
5.304402 -1.600893 -10.326927
5.328771 -1.541493 -10.374371
5.615533 -1.086799 -10.932654
5.664749 -1.040568 -11.028472
5.752608 -0.976922 -11.199522
5.916546 -0.922704 -11.518684
5.146352 -2.261235 -10.019226
5.161424 -2.150088 -10.048568
5.555422 -4.429359 -10.815626
5.145905 -3.317778 -10.018354
5.134223 -3.225255 -9.99561
5.397992 -4.166181 -10.509132
5.336858 -4.04498 -10.390114
5.123465 -3.10847 -9.974667
5.118169 -3.004504 -9.964356
5.285085 -3.904065 -10.289319
5.230867 -3.754021 -10.183765
5.112164 -2.886621 -9.952667
5.112281 -2.754028 -9.952894
5.19348 -3.604042 -10.110977
5.163048 -3.453567 -10.051731
5.178546 -2.066863 -10.081903
5.198 -1.972302 -10.119776
5.115529 -2.632189 -9.959217
5.117335 -2.564434 -9.962733
5.215811 -1.885719 -10.154453
5.242455 -1.794497 -10.206325
5.124354 -2.460199 -9.976399
5.133034 -2.381692 -9.993299
5.324963 -1.463225 -10.444343
5.349709 -1.409835 -10.49288
5.378706 -1.347278 -10.549753
5.42307 -1.275409 -10.636769
5.225863 -1.725271 -10.249968
5.247587 -1.656871 -10.292578
5.454285 -1.228748 -10.697994
5.500335 -1.15991 -10.788317
5.266059 -1.598715 -10.328808
5.289727 -1.539244 -10.375231
5.569423 -1.084246 -10.923824
5.61812 -1.038102 -11.019338
5.701503 -0.973966 -11.182885
5.837783 -0.915802 -11.450182
5.109978 -2.258525 -10.022673
5.124649 -2.147388 -10.051448
5.503354 -4.413781 -10.794236
5.110143 -3.314196 -10.022997
5.098556 -3.221782 -10.000269
5.351326 -4.154578 -10.496052
5.291718 -4.034474 -10.379135
5.087702 -3.105018 -9.97898
5.08245 -3.001172 -9.968679
5.241071 -3.894437 -10.279798
5.188159 -3.745379 -10.176015
5.076494 -2.883423 -9.956998
5.076412 -2.75087 -9.956837
5.157529 -3.600249 -10.115938
5.127151 -3.449827 -10.056355
5.141626 -2.064258 -10.084747
5.160918 -1.969807 -10.122585
5.079633 -2.629169 -9.963155
5.081426 -2.561491 -9.966671
5.178581 -1.883326 -10.157229
5.204641 -1.792084 -10.208344
5.088162 -2.457262 -9.979883
5.09677 -2.378844 -9.996767
5.285716 -1.46109 -10.445094
5.310245 -1.407768 -10.493566
5.338984 -1.345292 -10.550358
5.382226 -1.273342 -10.635808
5.187963 -1.722959 -10.251924
5.209501 -1.654642 -10.294487
5.413156 -1.226745 -10.696928
5.458784 -1.158003 -10.787093
5.227814 -1.596556 -10.330674
5.250791 -1.537013 -10.376079
5.525194 -1.082042 -10.918326
5.571701 -1.035656 -11.010228
5.651801 -0.971226 -11.168514
5.778822 -0.911951 -11.419521
5.073688 -2.25584 -10.026106
5.087962 -2.144711 -10.054313
5.451714 -4.398404 -10.773123
5.074464 -3.310656 -10.027639
5.062969 -3.218348 -10.004925
5.304951 -4.143101 -10.483103
5.24739 -4.024503 -10.369358
5.05202 -3.101604 -9.983288
5.046811 -2.997874 -9.972994
5.19729 -3.884904 -10.270356
5.151039 -3.740728 -10.178959
5.040904 -2.880259 -9.961321
5.040624 -2.747744 -9.960769
5.12166 -3.596502 -10.120902
5.091334 -3.446129 -10.060976
5.104797 -2.061677 -10.087581
5.123925 -1.967335 -10.125381
5.043821 -2.62618 -9.967086
5.045599 -2.558578 -9.970599
5.141439 -1.880954 -10.15999
5.166925 -1.789693 -10.210352
5.052053 -2.454354 -9.983353
5.060589 -2.376023 -10.000221
5.246777 -1.459028 -10.446223
5.270951 -1.405735 -10.494353
5.299376 -1.343324 -10.550949
5.341512 -1.271291 -10.634839
5.150254 -1.720698 -10.254048
5.171781 -1.652516 -10.296908
5.372158 -1.224758 -10.695853
5.417366 -1.156112 -10.785862
5.190087 -1.594544 -10.333354
5.212351 -1.534915 -10.377683
5.481976 -1.080019 -10.914499
5.527521 -1.033608 -11.005178
5.603671 -0.968732 -11.156792
5.720345 -0.908139 -11.389088
5.037484 -2.253181 -10.029526
5.051365 -2.14206 -10.057162
5.400496 -4.383223 -10.752275
5.038867 -3.307155 -10.032279
5.027464 -3.214953 -10.009578
5.258864 -4.13175 -10.470289
5.203301 -4.014632 -10.359664
5.01642 -3.098225 -9.987587
5.011253 -2.994613 -9.977302
5.155733 -3.876963 -10.264957
5.11502 -3.736857 -10.183899
5.005394 -2.877128 -9.965634
5.004922 -2.744651 -9.964696
5.085876 -3.592802 -10.125875
5.0556 -3.442473 -10.065596
5.068059 -2.05912 -10.0904
5.087027 -1.964886 -10.128163
5.008091 -2.623221 -9.971004
5.009853 -2.555693 -9.974512
5.104392 -1.878604 -10.162738
5.129306 -1.787322 -10.212341
5.016028 -2.451473 -9.986808
5.024495 -2.37323 -10.003664
5.21034 -1.457655 -10.452157
5.234325 -1.404407 -10.500271
5.262424 -1.342021 -10.556639
5.302721 -1.269689 -10.637476
5.115322 -1.71936 -10.261546
5.136687 -1.651226 -10.304406
5.332727 -1.223119 -10.697668
5.376981 -1.154431 -10.786446
5.154854 -1.593294 -10.340848
5.176187 -1.533481 -10.383643
5.438906 -1.078012 -10.910669
5.48401 -1.031672 -11.001149
5.556462 -0.966378 -11.146492
5.663569 -0.904561 -11.361353
5.928657 -0.878988 -11.893128
5.001361 -2.250548 -10.032936
5.015391 -2.139663 -10.06108
5.349687 -4.368235 -10.731691
5.003346 -3.303695 -10.036918
4.992037 -3.211597 -10.014231
5.213054 -4.12052 -10.4576
5.159442 -4.004859 -10.350053
4.980896 -3.094884 -9.991883
4.975772 -2.991386 -9.981603
5.119703 -3.873144 -10.270335
5.07908 -3.733034 -10.188844
4.969961 -2.874032 -9.969945
4.969294 -2.741588 -9.968607
5.050171 -3.589147 -10.130852
5.01998 -3.438884 -10.070288
5.03255 -2.057054 -10.095501
5.052051 -1.963174 -10.134621
4.972437 -2.620291 -9.974913
4.974185 -2.552839 -9.97842
5.069909 -1.877194 -10.170446
5.094452 -1.785909 -10.21968
4.980083 -2.44862 -9.990252
4.988479 -2.370464 -10.007093
5.173968 -1.456297 -10.458071
5.197762 -1.403092 -10.506166
5.22564 -1.340759 -10.562514
5.264538 -1.268225 -10.641138
5.08044 -1.718037 -10.269023
5.101643 -1.649951 -10.31188
5.294292 -1.221701 -10.701281
5.338178 -1.153082 -10.789985
5.119671 -1.592059 -10.348321
5.140084 -1.532061 -10.389583
5.397796 -1.076381 -10.910491
5.441867 -1.02998 -10.999572
5.510304 -0.964189 -11.137903
5.610613 -0.901562 -11.340656
5.750053 -0.857702 -11.622504
4.967741 -2.249037 -10.041228
4.981836 -2.138294 -10.069715
5.299283 -4.353437 -10.711369
4.967903 -3.300274 -10.041553
4.956685 -3.208279 -10.01888
5.167523 -4.109413 -10.445044
5.121684 -3.999768 -10.352389
4.945451 -3.091579 -9.996174
4.940367 -2.988194 -9.985897
5.083756 -3.869378 -10.275728
5.043222 -3.729259 -10.193796
4.934604 -2.87097 -9.974247
4.933745 -2.738556 -9.972511
5.014546 -3.585538 -10.135834
4.984598 -3.435447 -10.075299
4.998869 -2.055734 -10.104145
5.018227 -1.961909 -10.143272
4.936862 -2.617393 -9.978811
4.938596 -2.550014 -9.982315
5.035954 -1.87598 -10.179105
5.059728 -1.784541 -10.22716
4.944317 -2.445843 -9.993879
4.953557 -2.368208 -10.012557
5.137658 -1.454953 -10.463964
5.161263 -1.401791 -10.51204
5.188919 -1.339509 -10.568367
5.226435 -1.266775 -10.644776
5.045606 -1.716731 -10.276479
5.066648 -1.648691 -10.319335
5.255939 -1.220295 -10.704869
5.299457 -1.151744 -10.793502
5.084538 -1.59084 -10.355774
5.104042 -1.530657 -10.395496
5.356867 -1.074776 -10.91043
5.400537 -1.028432 -10.999376
5.4652 -0.962166 -11.131074
5.562923 -0.899386 -11.33011
5.692247 -0.854291 -11.593506
4.934817 -2.247844 -10.050832
4.94832 -2.136946 -10.078335
5.249278 -4.338827 -10.691301
4.932537 -3.296893 -10.046188
4.92141 -3.205 -10.023527
5.125653 -4.101136 -10.439513
5.085515 -3.9959 -10.357764
4.910082 -3.088309 -10.000456
4.905041 -2.985037 -9.990188
5.047893 -3.865665 -10.281138
5.007444 -3.725531 -10.198755
4.899324 -2.86794 -9.978543
4.898274 -2.735556 -9.976405
4.979 -3.581974 -10.140821
4.949294 -3.432053 -10.080318
4.965227 -2.054433 -10.11277
4.984442 -1.960662 -10.151906
4.902077 -2.614903 -9.984151
4.90488 -2.54815 -9.989859
5.002039 -1.874784 -10.187747
5.025053 -1.78319 -10.234617
4.911558 -2.444552 -10.003462
4.920733 -2.366956 -10.022148
5.101412 -1.453623 -10.469833
5.124829 -1.400505 -10.517894
5.152264 -1.338273 -10.5742
5.188599 -1.265382 -10.648771
5.010823 -1.715441 -10.283915
5.031704 -1.647447 -10.326768
5.218103 -1.219004 -10.709324
5.261621 -1.150594 -10.798638
5.049458 -1.589635 -10.363208
5.068064 -1.529267 -10.401393
5.316959 -1.073367 -10.912209
5.360371 -1.027096 -11.001306
5.422786 -0.960604 -11.129403
5.518103 -0.897657 -11.325025
5.636209 -0.851112 -11.567421
4.901926 -2.246672 -10.06042
4.914964 -2.135668 -10.087177
5.199668 -4.324404 -10.67149
4.897249 -3.293552 -10.050822
4.886213 -3.201758 -10.028172
5.089594 -4.09747 -10.445579
5.049434 -3.992088 -10.363156
4.874791 -3.085075 -10.004731
4.869791 -2.981915 -9.994469
5.012113 -3.862004 -10.286562
4.971947 -3.721999 -10.204127
4.864121 -2.864943 -9.982833
4.864858 -2.733698 -9.984344
4.943533 -3.578455 -10.145812
4.914067 -3.4287 -10.085338
4.931628 -2.053151 -10.121379
4.9507 -1.959434 -10.160522
4.869861 -2.613785 -9.994611
4.872644 -2.54706 -10.000324
4.968168 -1.873605 -10.196372
4.990427 -1.781855 -10.242054
4.878835 -2.443284 -10.013031
4.887944 -2.365725 -10.031725
5.065682 -1.452439 -10.47663
5.089303 -1.399465 -10.525483
5.116983 -1.337393 -10.582729
5.152057 -1.264302 -10.655267
4.976086 -1.714167 -10.291331
4.996806 -1.646218 -10.334185
5.181326 -1.217957 -10.715801
5.224501 -1.149598 -10.805093
5.014424 -1.588445 -10.370623
5.032826 -1.5281 -10.40868
5.27738 -1.072017 -10.914454
5.320573 -1.025825 -11.003786
5.382719 -0.959449 -11.132312
5.474277 -0.896078 -11.321669
5.58317 -0.848358 -11.546879
4.869064 -2.245521 -10.069994
4.882007 -2.13457 -10.096763
5.15044 -4.310161 -10.651924
4.862035 -3.29025 -10.055456
4.851089 -3.198556 -10.03282
5.053616 -4.093865 -10.451676
5.01343 -3.988329 -10.368566
4.839574 -3.081877 -10.009002
4.835265 -2.979228 -10.000092
4.976411 -3.858394 -10.292005
4.936567 -3.718548 -10.209601
4.832034 -2.863783 -9.993409
4.8327 -2.732554 -9.994788
4.908141 -3.57498 -10.15081
4.878914 -3.425391 -10.090365
4.898063 -2.051887 -10.129968
4.916994 -1.958223 -10.16912
4.837668 -2.61269 -10.005063
4.840433 -2.545993 -10.010779
4.934332 -1.872444 -10.204978
4.955846 -1.780538 -10.249473
4.84614 -2.442037 -10.022583
4.855183 -2.364516 -10.041286
5.03111 -1.451588 -10.48571
5.054558 -1.398641 -10.534579
5.082031 -1.336601 -10.591838
5.115568 -1.263233 -10.661735
4.941395 -1.712909 -10.298728
4.96249 -1.645182 -10.342693
5.144608 -1.216921 -10.722259
5.187517 -1.148629 -10.811687
4.980491 -1.587606 -10.380212
4.9993 -1.527455 -10.419411
5.23826 -1.070755 -10.917447
5.281128 -1.024616 -11.006791
5.343715 -0.95848 -11.137235
5.431028 -0.894583 -11.319208
5.532968 -0.846011 -11.531669
4.836233 -2.24439 -10.079553
4.849083 -2.133492 -10.106334
5.105651 -4.299517 -10.641067
4.826894 -3.286988 -10.060088
4.816038 -3.195391 -10.037462
5.017724 -4.090322 -10.457811
4.977508 -3.984624 -10.373994
4.806368 -3.079957 -10.017309
4.803541 -2.978272 -10.011415
4.940788 -3.854836 -10.297462
4.901266 -3.715147 -10.215091
4.800331 -2.862864 -10.004725
4.800569 -2.731436 -10.005222
4.872824 -3.57155 -10.155814
4.843835 -3.422124 -10.095397
4.864536 -2.050642 -10.13854
4.883326 -1.95703 -10.177701
4.805502 -2.61162 -10.015504
4.808247 -2.544949 -10.021223
4.900534 -1.871299 -10.213566
4.921311 -1.779236 -10.256869
4.813476 -2.440813 -10.032121
4.822453 -2.363328 -10.050833
4.996575 -1.45075 -10.494771
5.019847 -1.397829 -10.543652
5.047117 -1.335821 -10.600928
5.079485 -1.262263 -10.668915
4.908337 -1.71222 -10.309437
4.929357 -1.644542 -10.353587
5.108196 -1.215957 -10.729219
5.151041 -1.147773 -10.819209
4.947232 -1.586987 -10.391131
4.965907 -1.526857 -10.430355
5.200109 -1.069685 -10.922273
5.242424 -1.023545 -11.011149
5.30517 -0.95759 -11.142942
5.387912 -0.893099 -11.316732
5.485205 -0.844017 -11.521086
4.803435 -2.24328 -10.089102
4.816189 -2.132434 -10.115891
5.069786 -4.29634 -10.648543
4.792396 -3.284154 -10.065914
4.783933 -3.194183 -10.04814
4.981915 -4.086838 -10.463979
4.941666 -3.980973 -10.37944
4.774646 -3.078998 -10.028632
4.771837 -2.977344 -10.022733
4.905242 -3.85133 -10.302937
4.86604 -3.711795 -10.220596
4.76865 -2.861973 -10.016038
4.768464 -2.730344 -10.015648
4.837581 -3.568164 -10.160822
4.808831 -3.4189 -10.100433
4.831046 -2.049417 -10.147095
4.849696 -1.955856 -10.186268
4.773361 -2.610574 -10.025933
4.776086 -2.543929 -10.031657
4.866907 -1.870223 -10.222418
4.887811 -1.778311 -10.266324
4.780842 -2.439611 -10.041647
4.789753 -2.362162 -10.060364
4.962075 -1.449923 -10.503805
4.985174 -1.39703 -10.552703
5.012455 -1.33511 -10.610453
5.044968 -1.261682 -10.679274
4.875377 -1.711571 -10.320282
4.896248 -1.643917 -10.364463
5.072106 -1.215069 -10.736722
5.114617 -1.146927 -10.82671
4.913995 -1.586381 -10.40203
4.932539 -1.526272 -10.441283
5.164297 -1.069095 -10.931872
5.204139 -1.022552 -11.016211
5.26777 -0.956905 -11.150908
5.344933 -0.891627 -11.314245
5.439231 -0.842282 -11.513859
4.770667 -2.242189 -10.09863
4.78333 -2.131395 -10.125435
5.034015 -4.293241 -10.656091
4.761016 -3.283463 -10.0782
4.75261 -3.193512 -10.060407
4.94619 -4.083417 -10.470181
4.905903 -3.977375 -10.384902
4.742946 -3.078067 -10.039948
4.740157 -2.976444 -10.034046
4.869776 -3.847875 -10.308427
4.830893 -3.708492 -10.226117
4.736991 -2.861109 -10.027345
4.736383 -2.729275 -10.026057
4.802415 -3.564823 -10.165836
4.774715 -3.416301 -10.107201
4.797637 -2.048227 -10.15572
4.81711 -1.955107 -10.19694
4.741246 -2.609552 -10.036352
4.743952 -2.542933 -10.04208
4.834949 -1.869795 -10.234704
4.854996 -1.77764 -10.277141
4.74824 -2.438431 -10.051155
4.757086 -2.361017 -10.069881
4.927783 -1.449161 -10.513197
4.950995 -1.396373 -10.562719
4.978197 -1.334511 -10.620754
5.010471 -1.261113 -10.68961
4.842434 -1.710937 -10.331111
4.863155 -1.643305 -10.375319
5.03606 -1.214191 -10.744203
5.078887 -1.146238 -10.83557
4.880778 -1.585789 -10.412915
4.899188 -1.5257 -10.452192
5.128836 -1.068581 -10.942135
5.165936 -1.021572 -11.021288
5.230412 -0.956228 -11.158845
5.302079 -0.890165 -11.311742
5.394389 -0.840709 -11.50868
4.737926 -2.24112 -10.108149
4.751458 -2.130807 -10.137017
4.998332 -4.290218 -10.663713
4.729649 -3.282804 -10.090487
4.7213 -3.192872 -10.072676
4.910543 -4.080054 -10.476418
4.870217 -3.973831 -10.390385
4.711262 -3.077164 -10.051261
4.708493 -2.975572 -10.045353
4.834384 -3.844471 -10.313935
4.795817 -3.705237 -10.231654
4.705349 -2.860271 -10.038647
4.704325 -2.728233 -10.036462
4.76746 -3.56163 -10.171157
4.743773 -3.415986 -10.120623
4.765941 -2.047778 -10.167916
4.785281 -1.954677 -10.209177
4.709154 -2.608554 -10.046762
4.71184 -2.54196 -10.052494
4.803 -1.869382 -10.24698
4.822199 -1.776984 -10.28794
4.716054 -2.437475 -10.061485
4.724446 -2.359895 -10.079389
4.893918 -1.44853 -10.523421
4.916961 -1.395761 -10.572971
4.943964 -1.333924 -10.631037
4.976003 -1.260554 -10.699929
4.809512 -1.710318 -10.341923
4.830085 -1.642707 -10.386161
5.000555 -1.213444 -10.752723
5.043823 -1.145701 -10.845763
4.847629 -1.585226 -10.423885
4.866244 -1.525262 -10.463914
5.093403 -1.068076 -10.952375
5.129128 -1.020867 -11.029196
5.1931 -0.955559 -11.166756
5.265444 -0.889744 -11.322317
5.350069 -0.839206 -11.504287
4.706724 -2.240788 -10.120896
4.720478 -2.130633 -10.150474
4.962737 -4.287271 -10.671404
4.698297 -3.282177 -10.102777
4.690006 -3.192264 -10.084948
4.874977 -4.076753 -10.482693
4.834605 -3.970339 -10.395881
4.679598 -3.076291 -10.062568
4.676847 -2.974728 -10.056655
4.799065 -3.841118 -10.319459
4.760813 -3.702031 -10.237206
4.673728 -2.859461 -10.049946
4.67229 -2.727215 -10.046854
4.736373 -3.561338 -10.184652
4.712843 -3.415707 -10.134055
4.734256 -2.047347 -10.1801
4.753465 -1.954265 -10.221404
4.677083 -2.607579 -10.057161
4.679751 -2.54101 -10.062898
4.771062 -1.868986 -10.259243
4.790124 -1.776604 -10.300233
4.683935 -2.436564 -10.071895
4.691978 -2.358866 -10.08919
4.860081 -1.44791 -10.533627
4.882955 -1.395162 -10.583204
4.90976 -1.333347 -10.641299
4.94257 -1.260262 -10.712412
4.77661 -1.709713 -10.352715
4.797386 -1.642244 -10.397744
4.96584 -1.212891 -10.762848
5.008788 -1.145175 -10.855931
4.815078 -1.584866 -10.436089
4.833562 -1.524914 -10.476152
5.059231 -1.06784 -10.96526
5.092366 -1.02017 -11.037077
5.157242 -0.955159 -11.177687
5.230381 -0.889591 -11.336206
5.306936 -0.837877 -11.502131
4.67584 -2.240626 -10.134308
4.689503 -2.130477 -10.163921
4.927231 -4.284401 -10.679168
4.666964 -3.281582 -10.115068
4.658729 -3.191687 -10.09722
4.83949 -4.073512 -10.488999
4.799072 -3.966901 -10.401398
4.648088 -3.075535 -10.074158
4.645225 -2.973913 -10.067953
4.763824 -3.837816 -10.325003
4.729832 -3.701963 -10.251328
4.642125 -2.858677 -10.061235
4.640281 -2.726223 -10.057239
4.7053 -3.561083 -10.19816
4.681926 -3.415464 -10.1475
4.702585 -2.046934 -10.192273
4.72166 -1.953868 -10.233616
4.64504 -2.606629 -10.067552
4.647688 -2.540083 -10.073291
4.739135 -1.868605 -10.271493
4.758066 -1.776241 -10.312522
4.652962 -2.436261 -10.084723
4.661191 -2.358694 -10.102559
4.826265 -1.447303 -10.543815
4.84897 -1.394574 -10.593417
4.876521 -1.333041 -10.653608
4.909597 -1.260098 -10.725868
4.744311 -1.709333 -10.364771
4.764966 -1.641886 -10.409896
4.931241 -1.21237 -10.773152
4.973777 -1.144657 -10.866079
4.782534 -1.584519 -10.448277
4.800889 -1.524579 -10.488378
5.025693 -1.067745 -10.9795
5.058329 -1.020024 -11.0508
5.121406 -0.954768 -11.188601
5.195318 -0.889446 -11.350074
5.272609 -0.837939 -11.518931
4.644955 -2.240481 -10.147711
4.658528 -2.13034 -10.177364
4.891809 -4.281608 -10.687007
4.63564 -3.28102 -10.127361
4.627462 -3.19114 -10.109495
4.804078 -4.07033 -10.495342
4.763629 -3.963531 -10.406976
4.616895 -3.07501 -10.086409
4.613616 -2.973125 -10.079247
4.731624 -3.836974 -10.337055
4.699306 -3.702289 -10.266449
4.610539 -2.857921 -10.072524
4.608291 -2.725255 -10.067613
4.674233 -3.560863 -10.211676
4.651016 -3.415255 -10.160953
4.670918 -2.046537 -10.204432
4.68986 -1.953488 -10.245815
4.613882 -2.606193 -10.079826
4.617348 -2.540118 -10.087398
4.707215 -1.86824 -10.283731
4.726259 -1.775984 -10.325335
4.622787 -2.436399 -10.099279
4.630405 -2.358544 -10.115924
4.792505 -1.446718 -10.554054
4.816106 -1.394316 -10.60603
4.843779 -1.332879 -10.666971
4.876629 -1.259944 -10.739313
4.712044 -1.708976 -10.376864
4.732554 -1.641541 -10.422031
4.898125 -1.212221 -10.786651
4.940004 -1.144431 -10.878876
4.75 -1.584185 -10.460449
4.768227 -1.524256 -10.500589
4.992156 -1.06766 -10.993726
5.024572 -1.019941 -11.065113
5.08559 -0.954384 -11.199487
5.160257 -0.889307 -11.363919
5.238267 -0.838006 -11.535711
4.614072 -2.240357 -10.16111
4.627554 -2.130222 -10.190801
4.856471 -4.278891 -10.69492
4.604331 -3.280489 -10.139657
4.596209 -3.190625 -10.121771
4.768741 -4.067207 -10.501721
4.73144 -3.962877 -10.419577
4.585714 -3.074515 -10.09866
4.582025 -2.972365 -10.090535
4.700895 -3.837357 -10.352311
4.668782 -3.702655 -10.281592
4.57897 -2.857191 -10.083807
4.577575 -2.725058 -10.080736
4.643177 -3.560682 -10.225205
4.620116 -3.415082 -10.174419
4.639261 -2.046158 -10.21658
4.658071 -1.953124 -10.258004
4.583759 -2.606363 -10.094355
4.587202 -2.540283 -10.101935
4.675681 -1.868042 -10.296786
4.694872 -1.7759 -10.339047
4.592606 -2.436558 -10.113836
4.59962 -2.358413 -10.129283
4.760639 -1.446714 -10.568432
4.783558 -1.394159 -10.61931
4.811039 -1.332727 -10.680318
4.843665 -1.2598 -10.752745
4.679788 -1.708633 -10.388945
4.700152 -1.64121 -10.434155
4.865012 -1.212083 -10.800136
4.906819 -1.144349 -10.892945
4.717475 -1.583865 -10.472609
4.735639 -1.523968 -10.512933
4.958617 -1.067583 -11.007936
4.991626 -1.020033 -11.081215
5.049797 -0.954007 -11.210351
5.125199 -0.889175 -11.377741
5.203907 -0.83808 -11.552471
4.58319 -2.240252 -10.174501
4.596582 -2.130122 -10.204231
4.821212 -4.276247 -10.702902
4.573034 -3.279991 -10.151956
4.564969 -3.190142 -10.134052
4.735984 -4.066295 -10.513698
4.701613 -3.964243 -10.437397
4.554547 -3.07405 -10.110916
4.55045 -2.971633 -10.101821
4.67017 -3.837783 -10.367594
4.638264 -3.703064 -10.296764
4.548948 -2.85745 -10.098486
4.547487 -2.725259 -10.095242
4.61213 -3.560537 -10.238747
4.589223 -3.414944 -10.187895
4.607632 -2.045805 -10.228764
4.626832 -1.953006 -10.271383
4.553631 -2.606556 -10.108881
4.557052 -2.540471 -10.116475
4.644424 -1.867969 -10.310439
4.663486 -1.77583 -10.352754
4.562421 -2.436739 -10.128395
4.568835 -2.358303 -10.142634
4.729375 -1.446907 -10.584149
4.751014 -1.394013 -10.632576
4.778305 -1.332587 -10.693653
4.810705 -1.259666 -10.766162
4.647542 -1.708304 -10.40101
4.667763 -1.640893 -10.446263
4.834019 -1.212484 -10.818337
4.873635 -1.144276 -10.906998
4.685396 -1.583704 -10.485725
4.704536 -1.52417 -10.528561
4.92508 -1.067514 -11.02213
4.959948 -1.020396 -11.100162
5.014025 -0.953638 -11.221184
5.090146 -0.88905 -11.391539
5.169533 -0.838159 -11.569205
4.55231 -2.240166 -10.187885
4.565839 -2.130146 -10.218163
4.786038 -4.273679 -10.710958
4.541752 -3.279525 -10.164255
4.533742 -3.189688 -10.14633
4.705949 -4.067759 -10.531722
4.671785 -3.965661 -10.455266
4.523991 -3.07402 -10.124508
4.520847 -2.972213 -10.117471
4.639451 -3.838253 -10.382902
4.607751 -3.703514 -10.311958
4.519392 -2.858031 -10.114216
4.517707 -2.725672 -10.110444
4.581093 -3.56043 -10.252299
4.558341 -3.414841 -10.201381
4.576625 -2.045743 -10.2423
4.595694 -1.952946 -10.284976
4.523499 -2.606772 -10.123407
4.526897 -2.540682 -10.131012
4.613167 -1.867912 -10.324081
4.6321 -1.775775 -10.36645
4.532232 -2.436941 -10.142949
4.538053 -2.358212 -10.155979
4.698096 -1.447111 -10.599863
4.718468 -1.393878 -10.645828
4.74557 -1.332458 -10.706975
4.779838 -1.260095 -10.78429
4.615301 -1.707989 -10.413059
4.636211 -1.640885 -10.46024
4.803022 -1.212901 -10.836597
4.840448 -1.144212 -10.921039
4.654402 -1.583926 -10.501281
4.673419 -1.524384 -10.544185
4.892374 -1.067636 -11.038193
4.928236 -1.020766 -11.119107
4.979674 -0.953545 -11.235162
5.05509 -0.888931 -11.405315
5.135139 -0.838244 -11.585919
4.521713 -2.24024 -10.201908
4.535541 -2.1304 -10.233106
4.752891 -4.272941 -10.723492
4.510478 -3.279091 -10.176559
4.503537 -3.189984 -10.160897
4.675909 -4.069277 -10.549805
4.641951 -3.96713 -10.473187
4.494971 -3.075071 -10.141572
4.491268 -2.972846 -10.133216
4.608731 -3.838766 -10.398237
4.577237 -3.704005 -10.327178
4.489822 -2.858639 -10.129955
4.488148 -2.726252 -10.126177
4.550059 -3.560358 -10.265863
4.527462 -3.414773 -10.214878
4.546172 -2.04595 -10.257092
4.564552 -1.952903 -10.298561
4.493359 -2.607011 -10.137935
4.496735 -2.540915 -10.145552
4.581907 -1.86787 -10.337715
4.600711 -1.775735 -10.380142
4.502033 -2.437165 -10.157506
4.507268 -2.358143 -10.169317
4.666805 -1.447328 -10.615575
4.685924 -1.393754 -10.659064
4.713781 -1.332606 -10.722433
4.748957 -1.260537 -10.802445
4.584219 -1.708118 -10.427718
4.605323 -1.641127 -10.475722
4.771997 -1.213328 -10.854856
4.807258 -1.144157 -10.935062
4.623395 -1.584161 -10.516831
4.642287 -1.524611 -10.559804
4.860852 -1.068029 -11.056973
4.896497 -1.021146 -11.138056
4.948281 -0.95403 -11.25585
5.020037 -0.888819 -11.41907
5.100727 -0.838335 -11.602617
4.491495 -2.240525 -10.216799
4.505232 -2.130672 -10.248047
4.724507 -4.276544 -10.746831
4.48103 -3.280017 -10.192994
4.474446 -3.191107 -10.178017
4.645863 -4.070848 -10.567939
4.612109 -3.968651 -10.491159
4.465932 -3.076151 -10.158649
4.461676 -2.973505 -10.148968
4.578012 -3.839323 -10.413599
4.546724 -3.70454 -10.342428
4.46024 -2.859274 -10.145703
4.458576 -2.726857 -10.141916
4.519034 -3.560324 -10.27944
4.496592 -3.414741 -10.228391
4.515794 -2.046212 -10.272071
4.533408 -1.952876 -10.312137
4.463212 -2.607273 -10.152461
4.466565 -2.541171 -10.160089
4.550644 -1.867844 -10.351343
4.569319 -1.77571 -10.393824
4.471828 -2.437411 -10.172062
4.476774 -2.358246 -10.183313
4.635502 -1.447557 -10.631281
4.65368 -1.393731 -10.672971
4.683091 -1.33308 -10.740422
4.71805 -1.260989 -10.820599
4.55435 -1.708718 -10.445163
4.574423 -1.641383 -10.491199
4.74095 -1.213766 -10.873118
4.774658 -1.144253 -10.950426
4.592377 -1.584409 -10.532375
4.611146 -1.524851 -10.575419
4.829302 -1.068431 -11.075749
4.86473 -1.021533 -11.157002
4.918564 -0.954855 -11.280468
4.985683 -0.888838 -11.434402
5.066298 -0.838432 -11.619288
4.461271 -2.24083 -10.231689
4.474917 -2.130963 -10.262988
4.69611 -4.28022 -10.77028
4.451882 -3.281205 -10.210157
4.445339 -3.192261 -10.19515
4.615813 -4.072473 -10.586124
4.582266 -3.970224 -10.509185
4.436877 -3.077262 -10.175745
4.432073 -2.974193 -10.164727
4.547297 -3.839922 -10.428987
4.516215 -3.705115 -10.357701
4.430646 -2.859935 -10.161455
4.428994 -2.727487 -10.157663
4.488017 -3.560327 -10.293031
4.467823 -3.416345 -10.246716
4.485409 -2.046491 -10.287048
4.502264 -1.952865 -10.325705
4.433059 -2.607559 -10.166987
4.436389 -2.541449 -10.174626
4.519381 -1.867833 -10.364962
4.539398 -1.776275 -10.410869
4.442192 -2.437993 -10.187934
4.446651 -2.358568 -10.19816
4.604571 -1.44792 -10.647882
4.623747 -1.394418 -10.692224
4.652371 -1.333566 -10.758417
4.687114 -1.261452 -10.838758
4.524454 -1.709333 -10.462614
4.543507 -1.641652 -10.506672
4.709871 -1.214214 -10.891384
4.744038 -1.144839 -10.970392
4.561342 -1.58467 -10.547915
4.579987 -1.525103 -10.59103
4.797719 -1.068842 -11.094529
4.83293 -1.021929 -11.175952
4.888786 -0.955689 -11.305117
4.954349 -0.889408 -11.456727
5.031848 -0.838535 -11.635942
4.431032 -2.241153 -10.246577
4.444588 -2.131271 -10.277926
4.667692 -4.283971 -10.793845
4.422714 -3.282426 -10.227345
4.416211 -3.193447 -10.212305
4.585752 -4.074151 -10.604364
4.552409 -3.971847 -10.527259
4.407801 -3.078403 -10.192858
4.402455 -2.974908 -10.180495
4.516581 -3.840567 -10.444406
4.485702 -3.705731 -10.373
4.401038 -2.860622 -10.177219
4.399395 -2.728143 -10.17342
4.459073 -3.562021 -10.311422
4.439246 -3.418153 -10.265574
4.45501 -2.046789 -10.302028
4.471114 -1.95287 -10.339266
4.403225 -2.608062 -10.182276
4.4069 -2.542151 -10.190775
4.489476 -1.868406 -10.381727
4.509594 -1.776912 -10.42825
4.41267 -2.43867 -10.204119
4.417101 -2.359224 -10.214364
4.575528 -1.448899 -10.668928
4.594594 -1.395365 -10.713387
4.621624 -1.334063 -10.776414
4.656149 -1.261926 -10.856916
4.494533 -1.709962 -10.48007
4.512576 -1.641935 -10.522141
4.678765 -1.214671 -10.909651
4.715262 -1.145892 -10.994752
4.530293 -1.584945 -10.563452
4.548813 -1.525368 -10.606637
4.766107 -1.069262 -11.11331
4.801099 -1.022333 -11.194901
4.858949 -0.956532 -11.329791
4.926505 -0.890625 -11.487314
5.004284 -0.839802 -11.668674
4.400781 -2.241497 -10.261467
4.414247 -2.131598 -10.292864
4.639254 -4.287795 -10.817521
4.393525 -3.283679 -10.244546
4.387062 -3.194664 -10.229476
4.555685 -4.075883 -10.622662
4.522547 -3.973524 -10.545392
4.378706 -3.079575 -10.209991
4.372823 -2.975652 -10.196274
4.485863 -3.841255 -10.459854
4.457473 -3.708291 -10.393655
4.371414 -2.861336 -10.192988
4.370184 -2.729074 -10.190122
4.430353 -3.563951 -10.330419
4.410643 -3.419997 -10.284461
4.4246 -2.047104 -10.317005
4.441335 -1.953497 -10.356026
4.373746 -2.608808 -10.198427
4.377398 -2.542879 -10.206942
4.459773 -1.869089 -10.399019
4.479764 -1.777564 -10.445635
4.383132 -2.43937 -10.220313
4.387534 -2.359902 -10.230577
4.54644 -1.449891 -10.689993
4.565398 -1.396324 -10.734569
4.590848 -1.334571 -10.79441
4.625158 -1.26241 -10.875082
4.464586 -1.710606 -10.497531
4.481629 -1.642232 -10.537604
4.647769 -1.215176 -10.928248
4.686427 -1.146955 -11.019142
4.499228 -1.585232 -10.578983
4.519416 -1.526251 -10.626451
4.734463 -1.06969 -11.132089
4.769236 -1.022745 -11.213852
4.829051 -0.957383 -11.354495
4.898574 -0.891852 -11.517962
4.98083 -0.84179 -11.71137
4.370519 -2.241859 -10.276353
4.383894 -2.131944 -10.3078
4.610794 -4.291692 -10.841309
4.364316 -3.284966 -10.261768
4.357893 -3.195914 -10.246666
4.525608 -4.077669 -10.641012
4.492766 -3.975332 -10.563788
4.349589 -3.080776 -10.22714
4.343175 -2.976422 -10.212058
4.457613 -3.844115 -10.481135
4.429516 -3.711149 -10.415072
4.342188 -2.862348 -10.209738
4.341296 -2.730247 -10.20764
4.401606 -3.565919 -10.349446
4.382013 -3.421877 -10.303379
4.395597 -2.048098 -10.335319
4.411723 -1.954224 -10.373234
4.344249 -2.609578 -10.214583
4.347877 -2.54363 -10.223116
4.430044 -1.869787 -10.416314
4.449912 -1.778232 -10.463028
4.353574 -2.44009 -10.236509
4.357948 -2.3606 -10.246795
4.517311 -1.450896 -10.711075
4.53616 -1.397296 -10.75577
4.560046 -1.33509 -10.812407
4.594137 -1.262904 -10.893242
4.434616 -1.711266 -10.514997
4.450671 -1.642542 -10.553065
4.619081 -1.216305 -10.952385
4.657536 -1.14803 -11.043567
4.469761 -1.586104 -10.59833
4.49044 -1.527302 -10.647364
4.702789 -1.070127 -11.150868
4.738734 -1.023466 -11.236097
4.799096 -0.958244 -11.379224
4.870562 -0.893089 -11.548676
4.957254 -0.843793 -11.754234
4.340247 -2.242241 -10.291237
4.355155 -2.133103 -10.326585
4.582317 -4.295665 -10.865213
4.335089 -3.286284 -10.279008
4.328707 -3.197196 -10.263876
4.496532 -4.080423 -10.661809
4.465929 -3.979825 -10.589243
4.320454 -3.082009 -10.244306
4.314036 -2.97758 -10.22909
4.429469 -3.847142 -10.502792
4.401528 -3.714052 -10.436542
4.313272 -2.863605 -10.227276
4.312385 -2.731446 -10.225174
4.372835 -3.567926 -10.368506
4.353359 -3.423795 -10.322329
4.36683 -2.049234 -10.354268
4.382088 -1.954968 -10.390447
4.314735 -2.61037 -10.230745
4.318339 -2.544403 -10.239293
4.400293 -1.870502 -10.433615
4.420035 -1.778915 -10.480423
4.323999 -2.440833 -10.252713
4.328345 -2.36132 -10.263018
4.488133 -1.451914 -10.73218
4.506874 -1.398281 -10.776993
4.529212 -1.33562 -10.830408
4.564398 -1.263772 -10.914547
4.404617 -1.71194 -10.532472
4.421212 -1.64343 -10.572155
4.590331 -1.217447 -10.976557
4.628582 -1.149117 -11.068026
4.440858 -1.587205 -10.619132
4.461417 -1.528368 -10.668295
4.672385 -1.070871 -11.172768
4.709039 -1.024383 -11.260415
4.769077 -0.959113 -11.403982
4.84246 -0.894335 -11.579457
4.934017 -0.84589 -11.79839
4.311337 -2.243359 -10.309419
4.32642 -2.134302 -10.345486
4.553813 -4.299713 -10.889235
4.306171 -3.28789 -10.297066
4.299645 -3.198619 -10.28146
4.469499 -4.085124 -10.687619
4.439045 -3.984379 -10.614797
4.292073 -3.083831 -10.263353
4.285155 -2.978963 -10.246811
4.401287 -3.850216 -10.524508
4.373501 -3.717001 -10.458066
4.284327 -2.86489 -10.244831
4.283446 -2.732671 -10.242724
4.344034 -3.569973 -10.387603
4.324675 -3.42575 -10.341312
4.338026 -2.05039 -10.373238
4.352423 -1.955729 -10.407664
4.285199 -2.611187 -10.246916
4.288781 -2.5452 -10.25548
4.370513 -1.871233 -10.450921
4.390128 -1.779613 -10.497826
4.294404 -2.441599 -10.268927
4.298721 -2.362061 -10.27925
4.45891 -1.452946 -10.753301
4.477543 -1.399278 -10.798236
4.499353 -1.336459 -10.850834
4.535727 -1.264962 -10.938555
4.37611 -1.713223 -10.553616
4.393392 -1.64496 -10.595292
4.561522 -1.2186 -11.000763
4.599569 -1.150214 -11.09252
4.411911 -1.588321 -10.639954
4.432351 -1.529447 -10.689248
4.643139 -1.071904 -11.197594
4.679284 -1.025309 -11.284761
4.738998 -0.959992 -11.428772
4.814271 -0.895592 -11.610305
4.911211 -0.848101 -11.844088
4.28266 -2.244635 -10.328249
4.297651 -2.135521 -10.364402
4.528679 -4.307064 -10.921558
4.278074 -3.290181 -10.317188
4.271204 -3.200557 -10.300618
4.442419 -4.089887 -10.713528
4.412114 -3.988992 -10.640443
4.263676 -3.085696 -10.282466
4.2568 -2.980762 -10.265882
4.373068 -3.853338 -10.546279
4.345438 -3.719996 -10.479646
4.255358 -2.866202 -10.262403
4.254483 -2.733923 -10.260294
4.315204 -3.572058 -10.406731
4.295964 -3.427743 -10.360332
4.309186 -2.051563 -10.392219
4.322732 -1.956507 -10.424888
4.255644 -2.612027 -10.263094
4.259202 -2.54602 -10.271675
4.340706 -1.871981 -10.468234
4.360195 -1.780327 -10.515234
4.264788 -2.442386 -10.285147
4.270231 -2.363462 -10.298274
4.429642 -1.453991 -10.774443
4.448166 -1.400289 -10.819501
4.470669 -1.337675 -10.874236
4.506996 -1.266165 -10.962596
4.348459 -1.714879 -10.576978
4.365648 -1.646556 -10.618788
4.532651 -1.219765 -11.024999
4.570495 -1.151323 -11.117048
4.382917 -1.589452 -10.660793
4.403237 -1.530541 -10.710219
4.615992 -1.073449 -11.227713
4.650506 -1.026474 -11.311663
4.708855 -0.960879 -11.453588
4.787937 -0.897223 -11.645943
4.888272 -0.850328 -11.889993
4.253948 -2.245932 -10.347094
4.268847 -2.136759 -10.383334
4.504064 -4.315057 -10.955463
4.250304 -3.292788 -10.33823
4.242728 -3.202528 -10.319803
4.415289 -4.094711 -10.739532
4.385134 -3.993667 -10.666185
4.235247 -3.087592 -10.301606
4.228412 -2.98259 -10.284981
4.344812 -3.856508 -10.568108
4.317339 -3.723038 -10.501285
4.226361 -2.867541 -10.279993
4.22549 -2.735199 -10.277875
4.286772 -3.574538 -10.426935
4.267849 -3.430275 -10.380907
4.280311 -2.052756 -10.411219
4.293319 -1.95744 -10.442858
4.226068 -2.61289 -10.27928
4.229602 -2.546862 -10.287876
4.310871 -1.872744 -10.485551
4.331661 -1.781643 -10.53612
4.236771 -2.444129 -10.305314
4.242311 -2.365223 -10.318789
4.40033 -1.455049 -10.795606
4.418745 -1.401312 -10.840783
4.443973 -1.339519 -10.902679
4.478207 -1.267379 -10.986668
4.320753 -1.716552 -10.600376
4.337849 -1.648168 -10.642319
4.503724 -1.220942 -11.049269
4.541361 -1.152443 -11.141608
4.35388 -1.590596 -10.681649
4.374081 -1.531648 -10.731208
4.589844 -1.075261 -11.260553
4.62422 -1.028219 -11.344892
4.680345 -0.962123 -11.482585
4.761972 -0.898956 -11.682845
4.865199 -0.852572 -11.936099
4.225201 -2.24725 -10.365952
4.240009 -2.138017 -10.402279
4.479387 -4.323148 -10.989563
4.222495 -3.295432 -10.359313
4.214222 -3.204531 -10.339017
4.388113 -4.099599 -10.765635
4.358108 -3.998401 -10.692022
4.206786 -3.089521 -10.320774
4.199994 -2.984451 -10.304108
4.317162 -3.8603 -10.591564
4.289235 -3.726152 -10.523051
4.197339 -2.868908 -10.297597
4.196475 -2.736503 -10.295475
4.259625 -3.578165 -10.450406
4.23994 -3.433042 -10.402112
4.251401 -2.053968 -10.430232
4.26433 -1.958599 -10.461949
4.197111 -2.614175 -10.297037
4.201673 -2.548752 -10.308229
4.281459 -1.873719 -10.503972
4.304047 -1.783375 -10.559389
4.208841 -2.445971 -10.325816
4.214348 -2.367006 -10.339326
4.370967 -1.456121 -10.816791
4.391214 -1.402969 -10.866894
4.417194 -1.341378 -10.931189
4.449354 -1.268606 -11.010774
4.292986 -1.718243 -10.623811
4.309989 -1.649798 -10.665889
4.474731 -1.22213 -11.073572
4.512164 -1.153574 -11.166207
4.324796 -1.591756 -10.702529
4.344875 -1.53277 -10.75222
4.563599 -1.077087 -11.293492
4.597837 -1.029979 -11.378222
4.652244 -0.96348 -11.512863
4.735891 -0.900701 -11.719863
4.843688 -0.855134 -11.986627
4.196415 -2.248588 -10.384827
4.211132 -2.139295 -10.421246
4.454644 -4.331337 -11.023865
4.194644 -3.298115 -10.380445
4.185681 -3.206569 -10.358262
4.360887 -4.104553 -10.791843
4.331031 -4.003198 -10.717959
4.17829 -3.091481 -10.339972
4.171538 -2.986341 -10.323264
4.29067 -3.865229 -10.61808
4.262043 -3.730147 -10.547235
4.168287 -2.870302 -10.315218
4.168118 -2.738286 -10.314801
4.232588 -3.581974 -10.474343
4.211988 -3.435848 -10.423364
4.222454 -2.055199 -10.449265
4.235301 -1.959777 -10.481058
4.169204 -2.616163 -10.317488
4.173739 -2.550693 -10.328712
4.253907 -1.875548 -10.527102
4.27637 -1.785124 -10.582691
4.180865 -2.447836 -10.346346
4.186339 -2.368813 -10.359893
4.34243 -1.457499 -10.840172
4.364478 -1.40492 -10.895214
4.390338 -1.343255 -10.959767
4.421048 -1.27002 -11.036431
4.265161 -1.71995 -10.647283
4.282071 -1.651445 -10.689497
4.445677 -1.223331 -11.097913
4.482904 -1.154718 -11.190844
4.296443 -1.593219 -10.725374
4.315622 -1.533906 -10.773252
4.537258 -1.078928 -11.326529
4.571357 -1.031752 -11.411653
4.628904 -0.965859 -11.55531
4.7097 -0.90246 -11.757003
4.864762 -0.865317 -12.144091
4.167593 -2.249946 -10.40372
4.182216 -2.140592 -10.440226
4.430249 -4.340028 -11.059399
4.16675 -3.300834 -10.401619
4.157103 -3.208639 -10.377533
4.334546 -4.110458 -10.820492
4.304761 -4.008855 -10.746138
4.149758 -3.093473 -10.359199
4.143048 -2.988263 -10.34245
4.264907 -3.87093 -10.64665
4.234799 -3.734191 -10.57149
4.139787 -2.872126 -10.334306
4.140888 -2.740866 -10.337058
4.205503 -3.585831 -10.498356
4.183992 -3.438692 -10.44466
4.193468 -2.056448 -10.468313
4.208625 -1.962086 -10.506152
4.141915 -2.618595 -10.339621
4.145761 -2.552658 -10.349222
4.226296 -1.877395 -10.550264
4.248637 -1.786892 -10.606033
4.152844 -2.449725 -10.366902
4.158287 -2.370644 -10.380488
4.315723 -1.45953 -10.86834
4.337667 -1.406887 -10.923603
4.363403 -1.345147 -10.988413
4.393969 -1.271822 -11.065386
4.237279 -1.721676 -10.670794
4.254095 -1.653108 -10.713141
4.416563 -1.224544 -11.122286
4.456334 -1.156586 -11.222443
4.268388 -1.594829 -10.749136
4.286324 -1.535055 -10.794302
4.510823 -1.080783 -11.359663
4.544782 -1.03354 -11.445182
4.606077 -0.968391 -11.599542
4.693308 -0.906145 -11.819217
4.138735 -2.251326 -10.422628
4.153266 -2.141909 -10.459222
4.415124 -4.358041 -11.118663
4.138817 -3.303591 -10.422836
4.128493 -3.210743 -10.396835
4.311558 -4.119692 -10.857851
4.278756 -4.014881 -10.775244
4.121194 -3.095498 -10.378454
4.115428 -2.990871 -10.363935
4.239084 -3.876695 -10.67534
4.207507 -3.738285 -10.595817
4.112513 -2.87486 -10.356594
4.113609 -2.743476 -10.359353
4.178367 -3.589735 -10.522434
4.155958 -3.441576 -10.466002
4.166213 -2.05859 -10.491826
4.182058 -1.964499 -10.531731
4.11463 -2.621089 -10.361925
4.11774 -2.554648 -10.369758
4.19863 -1.879262 -10.573463
4.220847 -1.788678 -10.629412
4.124782 -2.451639 -10.387489
4.13019 -2.372498 -10.40111
4.288935 -1.461578 -10.896577
4.310773 -1.408871 -10.952059
4.336386 -1.347055 -11.017133
4.366805 -1.273639 -11.094416
4.209335 -1.72342 -10.694344
4.226057 -1.654789 -10.736827
4.387382 -1.225769 -11.146693
4.430027 -1.158563 -11.255039
4.24027 -1.596456 -10.772938
4.257873 -1.536544 -10.817659
4.484288 -1.082653 -11.392896
4.518107 -1.035342 -11.478817
4.583119 -0.970943 -11.643989
4.683188 -0.911115 -11.898225
4.110288 -2.252974 -10.442702
4.125784 -2.14403 -10.482072
4.400908 -4.377275 -11.181061
4.11084 -3.306388 -10.444103
4.099845 -3.21288 -10.416169
4.288489 -4.129029 -10.895444
4.252685 -4.020977 -10.804479
4.094069 -3.098674 -10.401496
4.088855 -2.994316 -10.388249
4.213195 -3.882525 -10.70415
4.180161 -3.74243 -10.620221
4.085186 -2.877626 -10.378925
4.086276 -2.746117 -10.381696
4.151178 -3.593688 -10.546588
4.12788 -3.444502 -10.487396
4.139657 -2.061132 -10.517316
4.15542 -1.966934 -10.557365
4.08729 -2.623612 -10.384274
4.089672 -2.556664 -10.390323
4.170903 -1.881148 -10.596702
4.192995 -1.790482 -10.65283
4.09667 -2.453577 -10.408104
4.102047 -2.374377 -10.421765
4.262065 -1.463643 -10.924879
4.283798 -1.410872 -10.980586
4.309288 -1.34898 -11.045921
4.339559 -1.275471 -11.123516
4.181331 -1.725181 -10.717931
4.197959 -1.656487 -10.760554
4.359375 -1.227355 -11.174311
4.403625 -1.160556 -11.287734
4.212092 -1.5981 -10.796782
4.231156 -1.538699 -10.845646
4.457655 -1.084538 -11.42623
4.493729 -1.037712 -11.518696
4.560032 -0.973516 -11.688652
4.674017 -0.916357 -11.980825
4.082594 -2.255084 -10.464842
4.09923 -2.14669 -10.507485
4.386628 -4.396781 -11.244166
4.083808 -3.310024 -10.467955
4.073395 -3.216816 -10.441262
4.26534 -4.138471 -10.933272
4.226548 -4.02714 -10.833836
4.067408 -3.10228 -10.425917
4.062222 -2.997796 -10.412622
4.187243 -3.888422 -10.733085
4.152761 -3.746624 -10.644698
4.057805 -2.880423 -10.401301
4.058889 -2.748786 -10.404078
4.123935 -3.597687 -10.57081
4.099757 -3.447467 -10.508835
4.113031 -2.063698 -10.542861
4.128712 -1.969391 -10.583055
4.059899 -2.626165 -10.406667
4.061556 -2.558706 -10.410917
4.143116 -1.883052 -10.619976
