1.865807 -1.095523 -11.284134
1.862116 -1.574024 -11.26181
1.86119 -1.50794 -11.256207
1.889441 -0.616942 -11.427069
1.893044 -0.561188 -11.448856
1.868509 -1.01282 -11.300474
1.870164 -0.962162 -11.310482
1.900275 -0.484753 -11.49259
1.905736 -0.431222 -11.525614
1.872501 -0.890627 -11.324617
1.876348 -0.81957 -11.347881
1.913625 -0.353877 -11.573328
1.919404 -0.297223 -11.60828
1.880049 -0.762291 -11.370265
1.884659 -0.690951 -11.398144
2.010318 0.220219 -12.158113
2.033425 0.291546 -12.297863
1.931039 -0.204656 -11.678645
1.939932 -0.144827 -11.732429
2.062597 0.373266 -12.474287
2.102248 0.443663 -12.714093
1.950712 -0.072301 -11.797626
1.960153 -0.00879 -11.854721
1.898965 -2.33691 -11.484667
1.888342 -2.203161 -11.420422
2.007988 -3.029659 -12.144024
1.8814 -2.103119 -11.378437
1.875899 -1.993543 -11.345169
1.963241 -2.829299 -11.873397
1.944154 -2.728709 -11.757963
1.870927 -1.894483 -11.315094
1.867151 -1.790055 -11.292259
1.92457 -2.587876 -11.639521
1.912882 -2.485869 -11.568832
1.8259 -1.42294 -11.253535
1.82612 -1.364843 -11.254895
1.937634 0.070289 -11.942184
1.952222 0.140586 -12.032097
1.826376 -1.297433 -11.256472
1.826676 -1.218376 -11.258321
1.829754 -1.713198 -11.277291
1.82801 -1.636903 -11.266542
1.8277 -1.167738 -11.264636
1.830048 -1.094493 -11.279101
1.826541 -1.572643 -11.257487
1.825582 -1.506576 -11.251579
1.853131 -0.61633 -11.421371
1.856661 -0.56063 -11.443129
1.832695 -1.011867 -11.29542
1.834317 -0.961255 -11.305412
1.863647 -0.484244 -11.486185
1.868997 -0.430768 -11.519156
1.836607 -0.889787 -11.319527
1.840302 -0.818763 -11.342301
1.876726 -0.353503 -11.566795
1.882388 -0.296907 -11.601689
1.843929 -0.761539 -11.364654
1.848445 -0.690267 -11.392492
1.969699 0.219779 -12.13981
1.992293 0.290957 -12.279068
1.893647 -0.204422 -11.671082
1.902358 -0.144661 -11.72477
2.019058 0.372176 -12.444028
2.056284 0.442027 -12.673462
1.912917 -0.072218 -11.789849
1.922164 -0.00878 -11.84684
1.862746 -2.334935 -11.480629
1.852334 -2.201309 -11.416461
1.965359 -3.020442 -12.113062
1.845485 -2.101307 -11.374249
1.840094 -1.99183 -11.34102
1.922579 -2.822186 -11.849397
1.904225 -2.722331 -11.736279
1.83522 -1.892859 -11.31098
1.831475 -1.78848 -11.287898
1.887892 -2.58573 -11.635612
1.876436 -2.48382 -11.565009
1.790347 -1.421667 -11.248915
1.790563 -1.363622 -11.250272
1.899197 0.070199 -11.932832
1.913478 0.140406 -12.02256
1.790813 -1.296271 -11.251845
1.791107 -1.217285 -11.253693
1.794173 -1.711709 -11.272953
1.792464 -1.635482 -11.262217
1.792052 -1.166654 -11.259631
1.794352 -1.093476 -11.274078
1.791025 -1.571279 -11.253173
1.790036 -1.505227 -11.246961
1.816889 -0.615724 -11.415682
1.820347 -0.560078 -11.437407
1.796945 -1.010925 -11.290372
1.798534 -0.96036 -11.300354
1.827093 -0.48374 -11.479792
1.832332 -0.430318 -11.512711
1.800777 -0.888957 -11.314448
1.804324 -0.817964 -11.336731
1.839902 -0.353132 -11.560273
1.845447 -0.296595 -11.595112
1.807875 -0.760794 -11.359048
1.812299 -0.689591 -11.386846
1.929849 0.219412 -12.12542
1.951325 0.290373 -12.260354
1.856337 -0.204191 -11.663535
1.864866 -0.144497 -11.717127
1.976465 0.371227 -12.418315
2.011194 0.440525 -12.636516
1.875206 -0.072135 -11.782091
1.88426 -0.008769 -11.838977
1.826586 -2.332987 -11.476609
1.816385 -2.199482 -11.412514
1.922995 -3.011326 -12.082357
1.80963 -2.099517 -11.370071
1.804348 -1.990138 -11.336884
1.882124 -2.815143 -11.825557
1.867343 -2.720179 -11.732686
1.799572 -1.891256 -11.30688
1.795859 -1.786924 -11.283547
1.851275 -2.583615 -11.63173
1.840051 -2.481801 -11.561208
1.754857 -1.420408 -11.2443
1.755069 -1.362414 -11.245654
1.860858 0.070111 -11.923502
1.874832 0.140228 -12.013044
1.755314 -1.295124 -11.24723
1.755602 -1.216207 -11.249072
1.758653 -1.710238 -11.268622
1.75698 -1.634078 -11.2579
1.75647 -1.165582 -11.254633
1.758721 -1.092469 -11.269059
1.75557 -1.569931 -11.248868
1.754553 -1.503895 -11.242351
1.780718 -0.615125 -11.410003
1.784103 -0.559532 -11.431694
1.761261 -1.009993 -11.285333
1.762817 -0.959474 -11.2953
1.790614 -0.483241 -11.473412
1.795743 -0.429873 -11.506275
1.765013 -0.888136 -11.309375
1.768414 -0.817174 -11.331163
1.803154 -0.352765 -11.553763
1.808582 -0.296286 -11.588545
1.771892 -0.760058 -11.353451
1.776224 -0.688922 -11.381209
1.890551 0.219097 -12.113766
1.910916 0.289854 -12.244253
1.81911 -0.203962 -11.656003
1.827459 -0.144334 -11.709499
1.935086 0.370477 -12.399123
1.966973 0.439163 -12.603437
1.83758 -0.072053 -11.774347
1.846442 -0.008759 -11.831134
1.790488 -2.331064 -11.472606
1.780497 -2.19768 -11.408587
1.880898 -3.002309 -12.051909
1.773836 -2.097751 -11.365908
1.768663 -1.988469 -11.332761
1.8448 -2.812629 -11.820611
1.830523 -2.718063 -11.729131
1.763986 -1.889674 -11.302794
1.760304 -1.785387 -11.279203
1.81472 -2.581531 -11.627874
1.803727 -2.479811 -11.557431
1.71943 -1.419165 -11.239696
1.719638 -1.361222 -11.241049
1.822615 0.070024 -11.9142
1.836285 0.140052 -12.003558
1.719878 -1.29399 -11.24262
1.720159 -1.215142 -11.244462
1.723195 -1.708786 -11.264303
1.721556 -1.632692 -11.253592
1.720952 -1.164522 -11.249643
1.723156 -1.091475 -11.26405
1.720176 -1.568601 -11.244574
1.719132 -1.502579 -11.237745
1.744616 -0.614533 -11.404332
1.74793 -0.558993 -11.425992
1.725642 -1.009073 -11.2803
1.727165 -0.958599 -11.290254
1.754209 -0.482748 -11.46704
1.759229 -0.429433 -11.499854
1.729315 -0.887325 -11.304309
1.732573 -0.816393 -11.325609
1.766482 -0.352403 -11.547264
1.771794 -0.295981 -11.58199
1.735978 -0.75933 -11.347862
1.740218 -0.688261 -11.37558
1.851661 0.218819 -12.104073
1.871235 0.289429 -12.232027
1.781966 -0.203736 -11.648485
1.790136 -0.144173 -11.701886
1.893921 0.369743 -12.380316
1.923631 0.437951 -12.574529
1.800038 -0.071973 -11.766621
1.80871 -0.00875 -11.823305
1.754451 -2.329169 -11.468622
1.744669 -2.195903 -11.404675
1.839063 -2.993393 -12.021718
1.738103 -2.096008 -11.361757
1.733038 -1.986821 -11.328649
1.807744 -2.810457 -11.816993
1.793765 -2.715981 -11.725612
1.728459 -1.888112 -11.298718
1.724811 -1.78387 -11.27487
1.778227 -2.579478 -11.624044
1.767463 -2.477851 -11.55368
1.684067 -1.417937 -11.235097
1.68427 -1.360043 -11.236448
1.784469 0.069937 -11.904917
1.797837 0.139878 -11.994099
1.684505 -1.292869 -11.238017
1.684781 -1.21409 -11.239857
1.687799 -1.707353 -11.259994
1.686196 -1.631324 -11.249297
1.685501 -1.163475 -11.244661
1.687657 -1.090492 -11.259045
1.684845 -1.567287 -11.240288
1.683775 -1.501279 -11.233149
1.708586 -0.613948 -11.398671
1.711828 -0.558459 -11.4203
1.69009 -1.008163 -11.275274
1.69158 -0.957733 -11.285216
1.717881 -0.48226 -11.460679
1.722791 -0.428998 -11.493442
1.693684 -0.886523 -11.299253
1.696803 -0.81562 -11.32006
1.729887 -0.352044 -11.540777
1.735084 -0.295678 -11.575448
1.700134 -0.75861 -11.342282
1.704283 -0.687606 -11.369961
1.812872 0.218545 -12.094402
1.831675 0.289009 -12.219845
1.744907 -0.203511 -11.640985
1.752898 -0.144013 -11.694296
1.853848 0.3692 -12.367769
1.881343 0.436939 -12.551202
1.762584 -0.071893 -11.758912
1.771065 -0.00874 -11.815495
1.718477 -2.3273 -11.464654
1.708902 -2.194151 -11.400782
1.885592 -3.281673 -12.579553
1.79979 -2.988396 -12.007131
1.702433 -2.094288 -11.357619
1.697476 -1.985196 -11.324552
1.770753 -2.808323 -11.813411
1.75707 -2.713934 -11.722126
1.692995 -1.886572 -11.294656
1.689381 -1.782372 -11.270547
1.741798 -2.577456 -11.62024
1.731262 -2.475921 -11.549953
1.648762 -1.416723 -11.230504
1.648961 -1.358879 -11.231855
1.746542 0.069857 -11.896529
1.759568 0.139713 -11.985256
1.649191 -1.291763 -11.233423
1.649461 -1.213051 -11.235262
1.65246 -1.705937 -11.255692
1.650892 -1.629972 -11.245008
1.65011 -1.16244 -11.239683
1.652219 -1.089521 -11.25405
1.649571 -1.565989 -11.23601
1.648477 -1.499994 -11.228561
1.672621 -0.613369 -11.393017
1.675792 -0.557931 -11.414617
1.654599 -1.007263 -11.270258
1.656056 -0.956878 -11.280185
1.681622 -0.481777 -11.454329
1.686424 -0.428567 -11.487039
1.658114 -0.88573 -11.294202
1.661097 -0.814856 -11.314523
1.693363 -0.351689 -11.534301
1.698445 -0.295379 -11.568917
1.664355 -0.757898 -11.336711
1.668412 -0.68696 -11.364347
1.774218 0.218278 -12.085044
1.792226 0.288593 -12.207702
1.707971 -0.203295 -11.633802
1.715818 -0.143862 -11.687254
1.81389 0.368661 -12.355263
1.839793 0.436065 -12.531707
1.72533 -0.071818 -11.752045
1.73366 -0.008731 -11.808781
1.682558 -2.325458 -11.460705
1.673192 -2.192424 -11.396904
1.839137 -3.266563 -12.527236
1.762333 -2.986301 -12.004085
1.666819 -2.092591 -11.353496
1.66197 -1.983592 -11.320466
1.733819 -2.806224 -11.809867
1.720432 -2.711921 -11.718676
1.657586 -1.885051 -11.290606
1.654008 -1.780892 -11.266233
1.705425 -2.575465 -11.616459
1.695117 -2.47402 -11.546249
1.613518 -1.415525 -11.225922
1.613712 -1.35773 -11.227273
1.709432 0.069807 -11.893239
1.722172 0.139612 -11.981876
1.613937 -1.29067 -11.228836
1.614201 -1.212024 -11.230672
1.61718 -1.70454 -11.2514
1.615646 -1.628638 -11.240729
1.614782 -1.161417 -11.234715
1.616844 -1.088561 -11.249063
1.614354 -1.564709 -11.231741
1.613239 -1.498725 -11.223979
1.637101 -0.612938 -11.39
1.640344 -0.557587 -11.412562
1.61917 -1.006374 -11.265246
1.620595 -0.956033 -11.275162
1.646069 -0.481484 -11.452391
1.650851 -0.428328 -11.485668
1.622607 -0.884947 -11.28916
1.625457 -0.814101 -11.308986
1.657763 -0.351518 -11.533752
1.662825 -0.295251 -11.568976
1.628649 -0.757198 -11.331198
1.632797 -0.686399 -11.360055
1.736501 0.21812 -12.081567
1.753523 0.288284 -12.199998
1.672004 -0.203189 -11.632834
1.679682 -0.143787 -11.686253
1.774555 0.368233 -12.346324
1.798828 0.4353 -12.515205
1.688989 -0.071781 -11.751005
1.697139 -0.008726 -11.807706
1.646698 -2.323642 -11.456772
1.637538 -2.190721 -11.393044
1.793134 -3.251671 -12.47559
1.724935 -2.984251 -12.001101
1.631263 -2.090917 -11.349384
1.626521 -1.98201 -11.316391
1.696945 -2.804163 -11.806362
1.683852 -2.709945 -11.715266
1.622234 -1.883551 -11.286564
1.618693 -1.779432 -11.26193
1.669111 -2.573505 -11.612705
1.65903 -2.472148 -11.542568
1.578332 -1.414341 -11.221346
1.578522 -1.356594 -11.222693
1.672375 0.069758 -11.889954
1.68483 0.139513 -11.978507
1.578742 -1.28959 -11.224257
1.579 -1.21101 -11.22609
1.581957 -1.70316 -11.247118
1.580458 -1.627322 -11.236461
1.579514 -1.160406 -11.22975
1.581567 -1.087638 -11.244346
1.579195 -1.563445 -11.227483
1.57806 -1.497472 -11.219407
1.6023 -0.612769 -11.391745
1.605472 -0.557433 -11.414301
1.58412 -1.005697 -11.262492
1.585683 -0.955491 -11.273607
1.610912 -0.481302 -11.452975
1.615591 -0.428166 -11.486242
1.587892 -0.884579 -11.289313
1.590772 -0.813809 -11.309787
1.622352 -0.351384 -11.534309
1.627305 -0.295139 -11.569523
1.59403 -0.75699 -11.332951
1.598089 -0.686211 -11.361805
1.698838 0.217963 -12.078094
1.714977 0.287992 -12.192841
1.636074 -0.203085 -11.631867
1.643583 -0.143713 -11.685253
1.735526 0.367855 -12.338934
1.758344 0.434626 -12.501164
1.652685 -0.071743 -11.749965
1.660655 -0.008722 -11.806632
1.610895 -2.321852 -11.452858
1.601941 -2.189043 -11.389198
1.747575 -3.236991 -12.424598
1.687596 -2.982243 -11.998171
1.595765 -2.089265 -11.345284
1.59113 -1.980449 -11.312329
1.66013 -2.802137 -11.802896
1.647329 -2.708001 -11.711886
1.586939 -1.882072 -11.282539
1.583436 -1.777991 -11.257635
1.632854 -2.571575 -11.608973
1.623 -2.470306 -11.538915
1.543208 -1.413172 -11.216779
1.543486 -1.355555 -11.218801
1.635373 0.069709 -11.886674
1.647544 0.139415 -11.975139
1.543982 -1.288836 -11.2224
1.544562 -1.210559 -11.226621
1.546794 -1.701799 -11.242846
1.54533 -1.626022 -11.2322
1.545161 -1.160046 -11.230975
1.547374 -1.087444 -11.247057
1.544096 -1.562198 -11.223234
1.542942 -1.496235 -11.214842
1.56752 -0.612605 -11.393486
1.570623 -0.557284 -11.416042
1.54987 -1.005517 -11.265203
1.5514 -0.955321 -11.276322
1.575784 -0.481125 -11.453559
1.58036 -0.428007 -11.486815
1.55356 -0.884421 -11.292026
1.556245 -0.813594 -11.311537
1.586971 -0.351254 -11.534868
1.591814 -0.295029 -11.570068
1.559432 -0.75679 -11.334699
1.563401 -0.686028 -11.363549
1.661232 0.217809 -12.07463
1.676514 0.287702 -12.185707
1.600183 -0.202983 -11.630898
1.607523 -0.143641 -11.684251
1.696916 0.367554 -12.334001
1.718243 0.434021 -12.489018
1.616421 -0.071707 -11.748927
1.624213 -0.008717 -11.805559
1.575151 -2.320087 -11.448956
1.566403 -2.187389 -11.385371
1.703534 -3.224568 -12.382106
1.650318 -2.980281 -11.995307
1.560326 -2.087637 -11.341197
1.555797 -1.97891 -11.308281
1.623374 -2.800147 -11.799462
1.610866 -2.706094 -11.708546
1.551703 -1.880613 -11.278522
1.548239 -1.776569 -11.253349
1.596656 -2.569676 -11.605268
1.587028 -2.468492 -11.535282
1.509089 -1.412908 -11.219281
1.509506 -1.355431 -11.222382
1.598418 0.069661 -11.883399
1.610306 0.139319 -11.971779
1.50999 -1.288718 -11.22598
1.510558 -1.210449 -11.230203
1.511685 -1.700456 -11.238582
1.510262 -1.624748 -11.228002
1.511026 -1.15985 -11.233682
1.513189 -1.087259 -11.249766
1.509374 -1.561302 -11.221403
1.508489 -1.495618 -11.21482
1.532755 -0.612448 -11.395226
1.535788 -0.55714 -11.417776
1.51563 -1.005346 -11.267912
1.517126 -0.955158 -11.279033
1.540679 -0.480952 -11.454139
1.545151 -0.427853 -11.487381
1.519238 -0.88427 -11.294738
1.521733 -0.813386 -11.313285
1.551612 -0.351127 -11.535422
1.556346 -0.294922 -11.570612
1.524848 -0.756596 -11.336444
1.528728 -0.685852 -11.365292
1.623721 0.217664 -12.071507
1.638528 0.287487 -12.181596
1.564324 -0.202883 -11.629927
1.571497 -0.143569 -11.68325
1.658584 0.367305 -12.330702
1.678369 0.433453 -12.477788
1.580191 -0.071671 -11.747887
1.587804 -0.008713 -11.804487
1.539461 -2.31835 -11.445079
1.530916 -2.18576 -11.381559
1.665324 -3.222908 -12.38081
1.613093 -2.97836 -11.992498
1.52494 -2.08603 -11.337122
1.520517 -1.977391 -11.304242
1.586671 -2.798193 -11.796068
1.574454 -2.70422 -11.70524
1.516519 -1.879175 -11.274521
1.513096 -1.775165 -11.249073
1.560512 -2.567806 -11.601585
1.551108 -2.466707 -11.531672
1.475123 -1.412791 -11.222857
1.475531 -1.355319 -11.225959
1.561515 0.069614 -11.880132
1.573346 0.139244 -11.970142
1.476004 -1.288612 -11.22956
1.476559 -1.210349 -11.233782
1.477412 -1.700029 -11.240267
1.476382 -1.624738 -11.232434
1.476919 -1.159677 -11.236517
1.479016 -1.087085 -11.252473
1.475514 -1.561292 -11.225834
1.474616 -1.495576 -11.218998
1.498007 -0.612295 -11.396961
1.500971 -0.557001 -11.419513
1.481401 -1.005185 -11.270622
1.482863 -0.955005 -11.281741
1.505598 -0.480783 -11.454713
1.509967 -0.427703 -11.487949
1.484927 -0.884128 -11.297449
1.487238 -0.813185 -11.315029
1.516279 -0.351003 -11.535974
1.520903 -0.294817 -11.571153
1.490282 -0.756408 -11.338184
1.494073 -0.685682 -11.367031
1.586878 0.217605 -12.073096
1.600725 0.287298 -12.178447
1.528501 -0.202784 -11.628957
1.535505 -0.143499 -11.682249
1.62062 0.367131 -12.329812
1.638694 0.432916 -12.467317
1.543996 -0.071636 -11.746848
1.551431 -0.008709 -11.803415
1.503824 -2.316638 -11.441215
1.495484 -2.184155 -11.377765
1.627169 -3.22131 -12.379634
1.575923 -2.976484 -11.989751
1.489608 -2.084447 -11.333062
1.485291 -1.975895 -11.30022
1.550024 -2.796275 -11.792707
1.538097 -2.70238 -11.701971
1.481389 -1.877756 -11.270526
1.478427 -1.774283 -11.247993
1.524422 -2.565968 -11.597929
1.515242 -2.464952 -11.528087
1.441166 -1.412688 -11.226435
1.441564 -1.35522 -11.229537
1.5251 0.069588 -11.880264
1.536843 0.139208 -11.971744
1.442026 -1.288518 -11.233136
1.442568 -1.21026 -11.23736
1.443511 -1.700034 -11.244703
1.442505 -1.624742 -11.236868
1.442919 -1.159592 -11.240095
1.444855 -1.08692 -11.255173
1.441658 -1.561297 -11.230265
1.440779 -1.49558 -11.223426
1.463279 -0.612148 -11.398692
1.466174 -0.556867 -11.421243
1.447185 -1.005032 -11.273325
1.448613 -0.954859 -11.284447
1.470544 -0.480619 -11.455289
1.47481 -0.427556 -11.488514
1.45063 -0.883993 -11.300155
1.452762 -0.812992 -11.31677
1.480973 -0.350882 -11.536523
1.485487 -0.294716 -11.571691
1.455734 -0.756228 -11.339922
1.459437 -0.685518 -11.368766
1.550058 0.217549 -12.074684
1.563053 0.287125 -12.175912
1.492883 -0.202711 -11.629301
1.499552 -0.143431 -11.68125
1.582782 0.366981 -12.329598
1.599562 0.432503 -12.460314
1.50784 -0.071602 -11.745811
1.51512 -0.008705 -11.802527
1.468244 -2.314952 -11.437367
1.460107 -2.182574 -11.373983
1.58907 -3.219774 -12.378581
1.538809 -2.974651 -11.98706
1.454334 -2.082886 -11.32901
1.450634 -1.975116 -11.300192
1.513433 -2.794392 -11.789385
1.501796 -2.700574 -11.698732
1.44738 -1.877739 -11.274842
1.444503 -1.774288 -11.252432
1.488389 -2.564159 -11.594296
1.479433 -2.463225 -11.524528
1.40721 -1.412598 -11.23001
1.407599 -1.355134 -11.233113
1.488895 0.069571 -11.881879
1.500357 0.139173 -11.97335
1.40805 -1.288435 -11.236713
1.40858 -1.210183 -11.24094
1.409608 -1.700054 -11.249143
1.408625 -1.624762 -11.241303
1.408923 -1.159518 -11.243675
1.410702 -1.086765 -11.257874
1.407798 -1.561316 -11.234699
1.406941 -1.495598 -11.227858
1.428564 -0.612007 -11.400421
1.431389 -0.556738 -11.422969
1.412977 -1.004888 -11.276027
1.41437 -0.954723 -11.28715
1.435511 -0.480459 -11.455857
1.439673 -0.427413 -11.489076
1.416339 -0.883867 -11.302858
1.418313 -0.812813 -11.318613
1.445687 -0.350765 -11.537069
1.450093 -0.294617 -11.572229
1.4212 -0.756054 -11.341656
1.424814 -0.68536 -11.370497
1.513258 0.217495 -12.076306
1.525669 0.287002 -12.175349
1.45731 -0.202642 -11.629822
1.463629 -0.143364 -11.680247
1.545043 0.366851 -12.329962
1.562086 0.432534 -12.465974
1.472066 -0.071585 -11.747578
1.479517 -0.008705 -11.807041
1.432714 -2.313292 -11.433537
1.425296 -2.181808 -11.374343
1.551018 -3.2183 -12.377647
1.501745 -2.97286 -11.984429
1.420189 -2.08293 -11.333586
1.416676 -1.975298 -11.305552
1.476893 -2.792545 -11.786099
1.465544 -2.698803 -11.695533
1.413498 -1.877911 -11.280189
1.410577 -1.77431 -11.256874
1.452406 -2.562381 -11.590688
1.443672 -2.461527 -11.520987
1.373259 -1.41252 -11.233585
1.373638 -1.355059 -11.236688
1.452964 0.069566 -11.885594
1.463888 0.13914 -11.974953
1.374078 -1.288364 -11.240288
1.374595 -1.210116 -11.244516
1.375703 -1.700091 -11.253584
1.374745 -1.624796 -11.24574
1.37493 -1.159454 -11.247253
1.376558 -1.08662 -11.260572
1.373937 -1.561349 -11.239134
1.3731 -1.49563 -11.232288
1.393865 -0.611871 -11.402149
1.396621 -0.556615 -11.424696
1.378777 -1.004754 -11.278726
1.380137 -0.954595 -11.28985
1.4005 -0.480304 -11.456426
1.404559 -0.427275 -11.489633
1.382058 -0.883748 -11.305561
1.383983 -0.812704 -11.321316
1.410425 -0.35065 -11.537615
1.414722 -0.29452 -11.572762
1.386682 -0.755888 -11.343389
1.390207 -0.685208 -11.372226
1.476887 0.217503 -12.081285
1.488516 0.28692 -12.176415
1.42206 -0.202619 -11.632795
1.428341 -0.143358 -11.68417
1.507553 0.366779 -12.332145
1.524714 0.4326 -12.472527
1.436641 -0.071586 -11.752067
1.443913 -0.008705 -11.811552
1.398144 -2.31316 -11.437157
1.391256 -2.182233 -11.380806
1.513016 -3.216887 -12.376833
1.464731 -2.971112 -11.981853
1.386141 -2.083142 -11.338969
1.382713 -1.975498 -11.31092
1.440404 -2.790733 -11.782851
1.429343 -2.697065 -11.692366
1.37961 -1.878101 -11.285542
1.376649 -1.774347 -11.261319
1.416475 -2.560632 -11.587102
1.407963 -2.459857 -11.517471
1.33931 -1.412455 -11.237157
1.33968 -1.354996 -11.24026
1.417136 0.069568 -11.890137
1.427713 0.139135 -11.978876
1.34011 -1.288305 -11.243866
1.340613 -1.21006 -11.248091
1.341797 -1.700143 -11.258026
1.340863 -1.624846 -11.250181
1.34094 -1.1594 -11.250829
1.342422 -1.086484 -11.263267
1.340075 -1.561397 -11.243569
1.339258 -1.495676 -11.236721
1.35918 -0.611741 -11.403872
1.361867 -0.556496 -11.426418
1.344586 -1.004628 -11.281425
1.345912 -0.954475 -11.292547
1.365579 -0.480176 -11.457562
1.369468 -0.42714 -11.490188
1.347785 -0.883637 -11.30826
1.349663 -0.812602 -11.324018
1.375377 -0.350588 -11.539765
1.379873 -0.294533 -11.577491
1.352177 -0.755727 -11.345112
1.355614 -0.685063 -11.37395
1.440512 0.217513 -12.086266
1.452016 0.286966 -12.182785
1.387243 -0.202659 -11.639322
1.39312 -0.143361 -11.688631
1.470156 0.36673 -12.334987
1.487331 0.43267 -12.479085
1.401215 -0.071587 -11.756554
1.408308 -0.008705 -11.816063
1.363925 -2.313637 -11.443678
1.357203 -2.18268 -11.387283
1.475061 -3.215536 -12.376141
1.427768 -2.969407 -11.979339
1.352108 -2.083405 -11.344532
1.348742 -1.975717 -11.316295
1.403966 -2.788956 -11.779637
1.393191 -2.695361 -11.689234
1.345716 -1.878309 -11.290901
1.34272 -1.774402 -11.265764
1.381077 -2.559808 -11.587592
1.373559 -2.460466 -11.524518
1.305367 -1.412402 -11.240729
1.305728 -1.354946 -11.243835
1.381562 0.069582 -11.896857
1.39166 0.139143 -11.983809
1.306147 -1.288257 -11.247438
1.306638 -1.210015 -11.251667
1.307892 -1.70021 -11.262469
1.306981 -1.624911 -11.254622
1.306955 -1.159357 -11.254404
1.308297 -1.086358 -11.265959
1.306213 -1.561459 -11.248007
1.305417 -1.495735 -11.241157
1.324513 -0.611616 -11.405592
1.327131 -0.556382 -11.428138
1.310406 -1.004512 -11.284117
1.311698 -0.954364 -11.295242
1.330943 -0.480149 -11.460968
1.334862 -0.427156 -11.49471
1.313523 -0.883534 -11.310956
1.315353 -0.812507 -11.326715
1.340843 -0.350659 -11.546218
1.345228 -0.294594 -11.583972
1.31769 -0.755574 -11.346839
1.321038 -0.684923 -11.375674
1.404209 0.217537 -12.091872
1.415507 0.287014 -12.189163
1.352414 -0.2027 -11.64585
1.357899 -0.143365 -11.693089
1.432838 0.366701 -12.338399
1.450359 0.43287 -12.489279
1.36579 -0.071589 -11.761041
1.372704 -0.008705 -11.820573
1.329694 -2.314137 -11.450212
1.32314 -2.183149 -11.393771
1.437155 -3.214247 -12.375569
1.390856 -2.967745 -11.976884
1.318171 -2.083851 -11.350986
1.314767 -1.975955 -11.321672
1.367581 -2.787215 -11.776459
1.357965 -2.695425 -11.693659
1.311817 -1.878534 -11.296265
1.308791 -1.774472 -11.270211
1.346589 -2.560689 -11.595694
1.339257 -2.461308 -11.532554
1.271424 -1.412363 -11.2443
1.271775 -1.354908 -11.247404
1.346163 0.069608 -11.905284
1.3556 0.139152 -11.988746
1.272183 -1.288221 -11.251011
1.272661 -1.209981 -11.255241
1.273981 -1.700294 -11.266916
1.273093 -1.624991 -11.259065
1.272971 -1.159325 -11.257981
1.274177 -1.086242 -11.268645
1.272345 -1.561535 -11.252445
1.27157 -1.495809 -11.245594
1.290094 -0.61161 -11.40942
1.292923 -0.556497 -11.434438
1.27623 -1.004404 -11.286808
1.277488 -0.954262 -11.297934
1.296834 -0.48032 -11.469019
1.300463 -0.427247 -11.501121
1.279266 -0.88344 -11.313652
1.281048 -0.81242 -11.329413
1.306292 -0.350734 -11.55267
1.310565 -0.294657 -11.590455
1.283213 -0.755427 -11.348558
1.286473 -0.68479 -11.377391
1.367976 0.217576 -12.098189
1.379278 0.287127 -12.198144
1.317567 -0.202744 -11.65238
1.322674 -0.14337 -11.69755
1.395869 0.366767 -12.344879
1.413416 0.433093 -12.500058
1.330361 -0.071592 -11.765528
1.337297 -0.008707 -11.826877
1.295447 -2.314659 -11.456758
1.28906 -2.18364 -11.400272
1.399288 -3.213018 -12.375116
1.353988 -2.966125 -11.974483
1.284219 -2.084318 -11.357454
1.280782 -1.976211 -11.327058
1.332754 -2.788674 -11.786697
1.323414 -2.696897 -11.704091
1.277907 -1.878777 -11.301633
1.274857 -1.77456 -11.274661
1.312076 -2.561598 -11.603819
1.304929 -2.462177 -11.540614
1.237482 -1.412336 -11.247869
1.237824 -1.354883 -11.250979
1.310738 0.069633 -11.913721
1.319631 0.139173 -11.994553
1.238221 -1.288197 -11.254585
1.238686 -1.209958 -11.258816
1.240067 -1.700393 -11.271365
1.239202 -1.625085 -11.263508
1.238987 -1.159303 -11.261554
1.240063 -1.086135 -11.271331
1.238474 -1.561626 -11.256888
1.23772 -1.495896 -11.250033
1.256135 -0.611833 -11.417412
1.25889 -0.5567 -11.442457
1.242062 -1.004305 -11.289496
1.243286 -0.954168 -11.300625
1.262699 -0.480496 -11.477073
1.26605 -0.427341 -11.507536
1.245015 -0.883353 -11.316344
1.24675 -0.812339 -11.332108
1.271726 -0.350812 -11.559126
1.275886 -0.294722 -11.596937
1.248958 -0.755415 -11.352184
1.252479 -0.684969 -11.384186
1.331728 0.217616 -12.104506
1.343116 0.287262 -12.20801
1.282704 -0.202789 -11.658913
1.287446 -0.143376 -11.702008
1.358889 0.366837 -12.351373
1.376435 0.433322 -12.510858
1.295169 -0.071608 -11.77221
1.302103 -0.00871 -11.835227
1.261185 -2.315205 -11.463316
1.254966 -2.184153 -11.406786
1.361464 -3.211852 -12.374784
1.318712 -2.968028 -11.986197
1.250251 -2.084805 -11.363932
1.246787 -1.976487 -11.332452
1.297929 -2.790241 -11.797289
1.288827 -2.698402 -11.714561
1.243989 -1.879039 -11.307011
1.240993 -1.774769 -11.279787
1.27754 -2.562535 -11.611968
1.270579 -2.463073 -11.548696
1.203541 -1.412322 -11.251438
1.203873 -1.354869 -11.254547
1.275329 0.069662 -11.922553
1.283698 0.1392 -12.000797
1.204259 -1.288184 -11.258155
1.204712 -1.209946 -11.262387
1.206149 -1.700508 -11.275817
1.205308 -1.625195 -11.267957
1.205005 -1.159291 -11.265128
1.205956 -1.086038 -11.274016
1.204599 -1.561732 -11.261333
1.203865 -1.495996 -11.254472
1.22215 -0.612061 -11.425406
1.224832 -0.556908 -11.450479
1.207899 -1.004216 -11.292182
1.20909 -0.954083 -11.303313
1.228539 -0.480676 -11.485133
1.231621 -0.42744 -11.513949
1.211095 -0.88351 -11.322061
1.213111 -0.812704 -11.340902
1.237144 -0.350893 -11.565579
1.241192 -0.29479 -11.603421
1.215165 -0.755695 -11.360108
1.218592 -0.685223 -11.392145
1.295728 0.217702 -12.113264
1.30692 0.287401 -12.217889
1.247826 -0.202836 -11.665446
1.252436 -0.143409 -11.708538
1.321894 0.36691 -12.357878
1.339415 0.433555 -12.521677
1.260133 -0.071635 -11.780497
1.266881 -0.008713 -11.843584
1.226908 -2.315775 -11.469889
1.220856 -2.184687 -11.413313
1.32368 -3.210746 -12.374572
1.28374 -2.970769 -12.001193
1.216268 -2.085313 -11.370423
1.212784 -1.976782 -11.337848
1.263066 -2.791841 -11.807918
1.254204 -2.699939 -11.72507
1.210061 -1.879318 -11.312391
1.207147 -1.775033 -11.285152
1.24298 -2.563499 -11.620139
1.236205 -2.463995 -11.556798
1.169603 -1.412321 -11.255008
1.169926 -1.354868 -11.258118
1.240013 0.069699 -11.932556
1.247754 0.139228 -12.007046
1.170301 -1.288183 -11.261727
1.170741 -1.209945 -11.26596
1.172228 -1.700639 -11.280268
1.171411 -1.62532 -11.272405
1.171026 -1.15929 -11.2687
1.171948 -1.086036 -11.277573
1.170722 -1.561852 -11.265779
1.170009 -1.496111 -11.258916
1.188141 -0.612294 -11.433404
1.19075 -0.557121 -11.458504
1.174204 -1.004527 -11.299281
1.175587 -0.954562 -11.31259
1.194355 -0.48086 -11.493195
1.197178 -0.427542 -11.520363
1.177541 -0.883957 -11.331392
1.179501 -0.813116 -11.350261
1.202548 -0.350977 -11.572037
1.206484 -0.294862 -11.60991
1.181349 -0.755982 -11.368036
1.184681 -0.685484 -11.400107
1.259806 0.217808 -12.123023
1.270997 0.287611 -12.230721
1.213294 -0.202946 -11.675442
1.217781 -0.143487 -11.718621
1.285085 0.367043 -12.366282
1.302361 0.433792 -12.532526
1.225073 -0.071663 -11.788792
1.231636 -0.008717 -11.851945
1.192617 -2.316368 -11.476473
1.186733 -2.185244 -11.419851
1.28865 -3.216473 -12.400587
1.248711 -2.973554 -12.016265
1.182272 -2.085842 -11.376925
1.178773 -1.977095 -11.343253
1.228169 -2.793476 -11.81859
1.219547 -2.701509 -11.73562
1.176126 -1.879616 -11.31778
1.173294 -1.775313 -11.290524
1.208398 -2.564491 -11.628333
1.201809 -2.464943 -11.564926
1.135662 -1.412332 -11.258575
1.135975 -1.354879 -11.261685
1.204657 0.069736 -11.94257
1.212055 0.139288 -12.015915
1.13634 -1.288193 -11.265296
1.137043 -1.210249 -11.272269
1.138299 -1.700785 -11.284724
1.137506 -1.62546 -11.276858
1.137531 -1.159797 -11.277108
1.138513 -1.086593 -11.28684
1.136837 -1.561986 -11.270228
1.136145 -1.49624 -11.263362
1.154104 -0.612534 -11.441405
1.156639 -0.557339 -11.466535
1.140705 -1.005043 -11.308577
1.14205 -0.955053 -11.321903
1.160142 -0.481049 -11.501264
1.162716 -0.427648 -11.526778
1.143949 -0.884412 -11.340733
1.145855 -0.813536 -11.359625
1.167944 -0.351068 -11.578611
1.172054 -0.29501 -11.619359
1.147503 -0.756275 -11.375967
1.150742 -0.685751 -11.408073
1.223845 0.217916 -12.132791
1.235284 0.287886 -12.246195
1.178795 -0.20307 -11.686189
1.183158 -0.143575 -11.729437
1.249423 0.367525 -12.386365
1.265262 0.434034 -12.543393
1.189982 -0.071691 -11.797089
1.196483 -0.008721 -11.861539
1.158307 -2.316984 -11.483071
1.152591 -2.185822 -11.426401
1.253546 -3.22239 -12.427237
1.213619 -2.976385 -12.031421
1.148257 -2.086393 -11.383442
1.144749 -1.977428 -11.348664
1.193232 -2.795146 -11.829307
1.18485 -2.703112 -11.746208
1.142178 -1.879931 -11.323176
1.139427 -1.77561 -11.295901
1.173789 -2.565511 -11.636552
1.167385 -2.465919 -11.573075
1.101857 -1.412532 -11.263542
1.102394 -1.355357 -11.269034
1.169263 0.069773 -11.952596
1.176857 0.139412 -12.03022
1.103017 -1.288963 -11.275407
1.103749 -1.211027 -11.28289
1.104365 -1.700947 -11.289182
1.103595 -1.625615 -11.281312
1.104223 -1.160542 -11.287737
1.105043 -1.08716 -11.296114
1.102946 -1.562135 -11.274678
1.102274 -1.496382 -11.267809
1.120039 -0.612779 -11.449411
1.1225 -0.557562 -11.474566
1.107172 -1.005569 -11.317882
1.108477 -0.955553 -11.331223
1.125901 -0.481243 -11.509336
1.128324 -0.427791 -11.534104
1.110322 -0.884876 -11.35008
1.112173 -0.813963 -11.368997
1.133715 -0.351284 -11.589205
1.137707 -0.295193 -11.630019
1.11367 -0.756603 -11.384299
1.116775 -0.686025 -11.416043
1.187848 0.218027 -12.142574
1.199502 0.288164 -12.261705
1.144255 -0.203196 -11.696954
1.148492 -0.143665 -11.740267
1.213983 0.368109 -12.409739
1.228462 0.434401 -12.557741
1.154955 -0.071726 -11.806333
1.161326 -0.008726 -11.871454
1.123979 -2.317623 -11.489684
1.11843 -2.186423 -11.432965
1.218322 -3.228386 -12.454093
1.178465 -2.979261 -12.046655
1.114224 -2.086964 -11.389969
1.110714 -1.977779 -11.354084
1.158255 -2.796849 -11.840061
1.150113 -2.704747 -11.756838
1.108219 -1.880265 -11.328577
1.105549 -1.775924 -11.301285
1.139153 -2.56656 -11.644796
1.132936 -2.46692 -11.581245
1.068578 -1.413451 -11.274144
1.0691 -1.356239 -11.279643
1.134133 0.06983 -11.965782
1.141599 0.139537 -12.044551
1.069705 -1.289802 -11.286028
1.070415 -1.211816 -11.293522
1.070426 -1.701125 -11.293641
1.069735 -1.625867 -11.286344
1.070875 -1.161299 -11.298376
1.071545 -1.087741 -11.305445
1.069341 -1.562722 -11.282193
1.068934 -1.497287 -11.277895
1.085949 -0.613029 -11.457418
1.088336 -0.557791 -11.482604
1.073606 -1.006104 -11.32719
1.074873 -0.956062 -11.340553
1.091865 -0.481542 -11.51983
1.094414 -0.428135 -11.546725
1.076662 -0.885348 -11.359432
1.078458 -0.814398 -11.378377
1.099446 -0.351504 -11.599813
1.103319 -0.295378 -11.640684
1.07991 -0.757007 -11.393699
1.082783 -0.686305 -11.424014
1.152253 0.218222 -12.156961
1.163654 0.288446 -12.277247
1.109674 -0.203324 -11.707725
1.113843 -0.143763 -11.751717
1.178435 0.368697 -12.433195
1.192779 0.435201 -12.584532
1.119952 -0.071765 -11.816167
1.126133 -0.00873 -11.88138
1.089635 -2.318287 -11.49631
1.084255 -2.187045 -11.439542
1.182981 -3.234463 -12.481159
1.143249 -2.982182 -12.061969
1.080176 -2.087556 -11.39651
1.076669 -1.978149 -11.359508
1.12324 -2.798587 -11.850862
1.11534 -2.706417 -11.767512
1.07425 -1.880616 -11.333985
1.071662 -1.776255 -11.306675
1.104493 -2.567636 -11.653065
1.098463 -2.467949 -11.58944
1.035254 -1.414384 -11.284759
1.035759 -1.357135 -11.290268
1.099032 0.069893 -11.979977
1.106274 0.139664 -12.058911
1.036346 -1.290655 -11.296662
1.037034 -1.212617 -11.304167
1.036954 -1.7021 -11.303291
1.036501 -1.627141 -11.29836
1.03748 -1.162067 -11.309031
1.038129 -1.088461 -11.316108
1.03612 -1.563946 -11.294205
1.035725 -1.498459 -11.289897
1.051897 -0.613325 -11.46618
1.054447 -0.558186 -11.493975
1.040001 -1.006649 -11.336512
1.041229 -0.95658 -11.34989
1.057974 -0.481932 -11.532419
1.060446 -0.428483 -11.559365
1.042963 -0.885829 -11.368795
1.044703 -0.814841 -11.387765
1.06513 -0.351727 -11.61043
1.068886 -0.295565 -11.651369
1.046111 -0.757419 -11.403108
1.048761 -0.68659 -11.43199
1.116673 0.218435 -12.172271
1.127733 0.28873 -12.292829
1.075114 -0.203467 -11.719257
1.079246 -0.143877 -11.764297
1.142769 0.369291 -12.456732
1.157735 0.4363 -12.61986
1.084908 -0.071804 -11.826014
1.090899 -0.008735 -11.891315
1.05527 -2.318973 -11.502949
1.050058 -2.18769 -11.446134
1.152361 -3.254313 -12.56129
1.107967 -2.985149 -12.077364
1.046107 -2.088169 -11.403062
1.042609 -1.978539 -11.36494
1.088182 -2.800359 -11.861703
1.080524 -2.708118 -11.778223
1.040266 -1.880985 -11.3394
1.037999 -1.777013 -11.31468
1.069802 -2.56874 -11.661354
1.063959 -2.469005 -11.59766
1.001972 -1.415454 -11.296372
1.002374 -1.358043 -11.300902
1.063868 0.069957 -11.994199
1.070974 0.139805 -12.074312
1.002942 -1.291519 -11.307307
1.003609 -1.21343 -11.314825
1.003654 -1.70345 -11.315337
1.003216 -1.628431 -11.310399
1.004041 -1.162846 -11.319696
1.00467 -1.089192 -11.326788
1.002846 -1.565186 -11.306233
1.002464 -1.499646 -11.301918
1.01814 -0.613826 -11.478659
1.020611 -0.558643 -11.50651
1.006359 -1.007203 -11.345837
1.007548 -0.957107 -11.359235
1.024027 -0.482328 -11.545028
1.026422 -0.428836 -11.572025
1.009227 -0.886318 -11.378169
1.010912 -0.815291 -11.397161
1.030771 -0.351953 -11.62106
1.034409 -0.295757 -11.662073
1.012275 -0.757839 -11.412527
1.014865 -0.686989 -11.441735
1.081024 0.218651 -12.187613
1.092026 0.289094 -12.311654
1.040591 -0.203629 -11.731773
1.044594 -0.143991 -11.776895
1.106989 0.369891 -12.480354
1.122514 0.437409 -12.655383
1.049825 -0.071845 -11.835871
1.055961 -0.008743 -11.905058
1.020904 -2.319726 -11.509815
1.015841 -2.188356 -11.452736
1.12353 -3.280763 -12.66683
1.072618 -2.988162 -12.092843
1.012017 -2.088803 -11.40963
1.008841 -1.979546 -11.373818
1.053082 -2.802167 -11.872589
1.045665 -2.709854 -11.788979
1.006889 -1.882531 -11.351806
1.004798 -1.778658 -11.328236
1.035083 -2.569873 -11.669671
1.029427 -2.470087 -11.605902
0.968674 -1.416589 -11.308405
0.968943 -1.358966 -11.311552
1.028639 0.070022 -12.008448
1.036122 0.140017 -12.095802
0.969493 -1.292397 -11.317966
0.970138 -1.214255 -11.325498
0.970301 -1.704818 -11.327402
0.969877 -1.629738 -11.322453
0.970556 -1.163637 -11.330376
0.971164 -1.089934 -11.337478
0.96952 -1.566442 -11.318284
0.969149 -1.500849 -11.313959
0.984328 -0.614333 -11.491158
0.986719 -0.559105 -11.519063
0.97268 -1.007766 -11.355173
0.973829 -0.957644 -11.368588
0.990024 -0.482729 -11.557653
0.992341 -0.429193 -11.584702
0.975453 -0.886815 -11.387546
0.977159 -0.815814 -11.407466
0.996385 -0.352189 -11.63191
1.000031 -0.295993 -11.674475
0.978687 -0.758487 -11.425296
0.981159 -0.687554 -11.454161
1.045304 0.218869 -12.202989
1.056592 0.289561 -12.334769
1.006013 -0.203793 -11.744308
1.009885 -0.144108 -11.789513
1.071093 0.370496 -12.504063
1.087115 0.438528 -12.691096
1.014853 -0.071896 -11.847511
1.020987 -0.008751 -11.919119
0.98675 -2.321052 -11.519424
0.98208 -2.190107 -11.464911
1.095966 -3.312941 -12.794433
1.037201 -2.99122 -12.108402
0.97866 -2.091065 -11.424989
0.975449 -1.981406 -11.387502
1.017938 -2.804008 -11.883515
1.010765 -2.711623 -11.799777
0.973559 -1.884297 -11.365441
0.971536 -1.780323 -11.341821
1.000334 -2.571034 -11.678012
0.994866 -2.471197 -11.614171
0.935325 -1.417739 -11.320455
0.93547 -1.359901 -11.322213
0.993403 0.070091 -12.02339
1.001166 0.140231 -12.117354
0.936001 -1.293288 -11.32864
0.936624 -1.215092 -11.336182
0.936897 -1.706204 -11.339488
0.936487 -1.631063 -11.33453
0.937028 -1.16444 -11.341068
0.937615 -1.090686 -11.348182
0.936142 -1.567714 -11.330351
0.935784 -1.502068 -11.326018
0.950463 -0.614846 -11.503674
0.952772 -0.559573 -11.531631
0.938965 -1.008339 -11.364514
0.940075 -0.958189 -11.377949
0.955967 -0.483134 -11.570297
0.958213 -0.429557 -11.597479
0.941864 -0.887528 -11.399601
0.943688 -0.816623 -11.421685
0.962077 -0.352473 -11.644251
0.965601 -0.296233 -11.686894
0.945165 -0.759241 -11.439554
0.9474 -0.688127 -11.466606
1.009905 0.219175 -12.223115
1.021046 0.290031 -12.357963
0.971381 -0.203959 -11.756859
0.97514 -0.144228 -11.802352
1.035572 0.371282 -12.53377
1.051537 0.439657 -12.727006
0.980198 -0.071975 -11.863571
0.985951 -0.008759 -11.933205
0.953279 -2.324158 -11.537765
0.948558 -2.192551 -11.480618
1.001874 -2.994788 -12.125921
0.945251 -2.09339 -11.440596
0.941997 -1.983289 -11.401214
0.982886 -2.806267 -11.896107
0.976086 -2.714158 -11.813804
0.94017 -1.886083 -11.379104
0.938215 -1.782007 -11.355435
0.965972 -2.573327 -11.691395
0.960911 -2.473965 -11.630132
0.901918 -1.418904 -11.332524
0.901947 -1.360851 -11.332889
0.958598 0.070198 -12.044703
0.966101 0.140446 -12.138978
0.902459 -1.294191 -11.339325
0.903061 -1.215942 -11.34688
0.903449 -1.707632 -11.351756
0.903041 -1.632405 -11.346629
0.90345 -1.165254 -11.351776
0.904017 -1.091449 -11.358901
0.902707 -1.569003 -11.342441
0.902362 -1.503302 -11.338101
0.916537 -0.615365 -11.516211
0.918766 -0.560047 -11.544221
0.905391 -1.009126 -11.376161
0.906632 -0.959117 -11.391753
0.921902 -0.483572 -11.583617
0.924166 -0.429992 -11.612067
0.908386 -0.888416 -11.413798
0.910148 -0.817442 -11.435929
0.927711 -0.352761 -11.65661
0.931111 -0.296476 -11.699333
0.911573 -0.760003 -11.453836
0.913581 -0.688706 -11.479072
0.974546 0.219515 -12.24509
0.985382 0.290507 -12.38124
0.93669 -0.204127 -11.769428
0.940691 -0.144405 -11.819701
1.000312 0.37223 -12.568833
1.016974 0.441318 -12.778189
0.945576 -0.072064 -11.881085
0.950847 -0.008767 -11.947315
0.919718 -2.327297 -11.556174
0.914958 -2.195022 -11.49637
0.967609 -3.001958 -12.157927
0.911765 -2.095741 -11.456248
0.908479 -1.985194 -11.414956
0.948645 -2.811132 -11.919645
0.942071 -2.718831 -11.837039
0.906715 -1.887892 -11.392801
0.904827 -1.783712 -11.369081
0.931981 -2.576849 -11.710258
0.92709 -2.477333 -11.648812
0.868457 -1.420084 -11.344621
0.868377 -1.361814 -11.343578
0.923686 0.070306 -12.06608
0.930927 0.140664 -12.16067
0.868871 -1.295107 -11.350027
0.86945 -1.216803 -11.357594
0.870047 -1.709282 -11.365396
0.869539 -1.633764 -11.358749
0.869931 -1.166223 -11.363883
0.870692 -1.092625 -11.373813
0.869217 -1.570309 -11.354553
0.868884 -1.504553 -11.350205
0.882553 -0.615891 -11.52876
0.884753 -0.56056 -11.557501
0.871953 -1.010142 -11.390297
0.87315 -0.960084 -11.405925
0.887866 -0.484065 -11.598166
0.890049 -0.430432 -11.62668
0.874841 -0.889314 -11.428019
0.876539 -0.818269 -11.450199
0.893288 -0.353052 -11.668986
0.896565 -0.296722 -11.711793
0.877913 -0.760774 -11.468149
0.879705 -0.689293 -11.491552
0.939887 0.220048 -12.277709
0.9496 0.290986 -12.404596
0.902268 -0.204371 -11.786288
0.906157 -0.144583 -11.837096
0.964872 0.373186 -12.604092
0.982243 0.443037 -12.831001
0.910869 -0.072154 -11.898646
0.915677 -0.008776 -11.961456
0.886066 -2.330468 -11.574647
0.881283 -2.197521 -11.512168
0.933183 -3.009202 -12.190138
0.878204 -2.098119 -11.471947
0.874896 -1.987122 -11.428733
0.914287 -2.816046 -11.943295
0.907939 -2.72355 -11.860379
0.873196 -1.889722 -11.406529
0.871376 -1.785437 -11.382757
0.898171 -2.581195 -11.732771
0.893179 -2.480736 -11.667562
0.834942 -1.421278 -11.35673
0.834762 -1.36279 -11.354282
0.88867 0.070415 -12.087524
0.895647 0.140884 -12.182428
0.835359 -1.296225 -11.362396
0.836134 -1.218172 -11.372942
0.836584 -1.71095 -11.379063
0.835983 -1.635139 -11.370889
0.836636 -1.167589 -11.379777
0.837368 -1.093906 -11.389731
0.835674 -1.571631 -11.366683
0.835353 -1.505819 -11.362327
0.848601 -0.616486 -11.54252
0.850767 -0.561135 -11.571983
0.838451 -1.011169 -11.404456
0.839602 -0.961061 -11.42012
0.853764 -0.484564 -11.612745
0.855865 -0.430876 -11.641323
0.84123 -0.890221 -11.442265
0.842865 -0.819105 -11.464495
0.858898 -0.353383 -11.682572
0.862015 -0.296988 -11.724977
0.844187 -0.761552 -11.482485
0.845833 -0.689935 -11.504873
0.905065 0.220586 -12.310538
0.914118 0.291602 -12.433672
0.867794 -0.204625 -11.803582
0.87154 -0.144763 -11.854527
0.929253 0.374151 -12.639537
0.947244 0.444775 -12.884243
0.876077 -0.072244 -11.916245
0.880827 -0.008788 -11.980855
0.852326 -2.333673 -11.593184
0.847534 -2.200047 -11.528011
0.898597 -3.016522 -12.222553
0.84457 -2.100522 -11.487685
0.84125 -1.989072 -11.442537
0.880055 -2.821788 -11.970355
0.873694 -2.728318 -11.88383
0.839614 -1.891572 -11.420284
0.837863 -1.787183 -11.396461
0.864277 -2.585664 -11.755748
0.859177 -2.484174 -11.686377
0.801556 -1.422822 -11.371541
0.801416 -1.364327 -11.369552
0.853541 0.070525 -12.109038
0.860265 0.141108 -12.204429
0.802032 -1.297756 -11.378283
0.802777 -1.219611 -11.388854
0.803052 -1.712637 -11.392759
0.802368 -1.636533 -11.38305
0.80326 -1.16897 -11.395707
0.803963 -1.095201 -11.405688
0.802071 -1.57297 -11.378839
0.801763 -1.507101 -11.374472
0.814627 -0.617124 -11.556964
0.816708 -0.561717 -11.586496
0.804877 -1.012207 -11.418644
0.805983 -0.962049 -11.434343
0.819588 -0.485068 -11.627349
0.821607 -0.431326 -11.655992
0.807548 -0.891138 -11.456538
0.809118 -0.819951 -11.47882
0.824565 -0.353772 -11.697956
0.827676 -0.297357 -11.7421
0.810389 -0.76234 -11.496851
0.81207 -0.690735 -11.520702
0.87007 0.22113 -12.343536
0.878795 0.292328 -12.467307
0.833232 -0.204881 -11.82092
0.836833 -0.144945 -11.872005
0.893447 0.375125 -12.675182
0.911968 0.446531 -12.937928
0.841286 -0.072343 -11.935182
0.845997 -0.008801 -12.002013
0.818491 -2.33691 -11.611791
0.813705 -2.2026 -11.543896
0.864256 -3.025365 -12.261048
0.810856 -2.102952 -11.503472
0.807665 -1.991362 -11.458202
0.845975 -2.828564 -12.001704
0.839328 -2.733134 -11.907394
0.805964 -1.893445 -11.434073
0.804281 -1.788948 -11.410198
0.830266 -2.590179 -11.778833
0.82508 -2.487649 -11.705262
0.768294 -1.424747 -11.389289
0.76816 -1.366172 -11.387295
0.818302 0.070636 -12.130619
0.82547 0.141454 -12.236879
0.768626 -1.299302 -11.394205
0.769341 -1.221065 -11.404802
0.769454 -1.714344 -11.406488
0.768784 -1.638134 -11.396555
0.769804 -1.170364 -11.411674
0.770479 -1.096508 -11.42168
0.768639 -1.574793 -11.394399
0.768488 -1.509131 -11.392161
0.780581 -0.617768 -11.571436
0.782578 -0.562305 -11.601036
0.77124 -1.013265 -11.432959
0.772295 -0.963048 -11.448594
0.78534 -0.485577 -11.641981
0.787277 -0.43178 -11.670693
0.773795 -0.892065 -11.470838
0.775347 -0.820853 -11.493836
0.790466 -0.354303 -11.717968
0.793252 -0.29773 -11.759265
0.776649 -0.763261 -11.513144
0.77827 -0.691579 -11.537178
0.834902 0.221678 -12.376701
0.843719 0.293207 -12.507399
0.798583 -0.20514 -11.838299
0.802039 -0.145129 -11.889524
0.858327 0.37649 -12.723951
0.806876 -0.072486 -11.961236
0.811377 -0.008819 -12.027952
0.784563 -2.340181 -11.630459
0.779798 -2.205182 -11.559832
0.830648 -3.037709 -12.313634
0.777064 -2.105408 -11.519302
0.774003 -1.993679 -11.473919
0.811734 -2.835409 -12.033253
0.804841 -2.737998 -11.931067
0.772247 -1.895339 -11.447892
0.770633 -1.790734 -11.423965
0.796136 -2.594739 -11.802025
0.790887 -2.491158 -11.724215
0.734941 -1.426689 -11.407085
0.734812 -1.368034 -11.405086
0.782952 0.070748 -12.152269
0.790505 0.141802 -12.269491
0.735139 -1.300862 -11.410162
0.735824 -1.222534 -11.42079
0.736124 -1.716852 -11.425443
0.735411 -1.640369 -11.414373
0.736268 -1.171773 -11.427677
0.736914 -1.097829 -11.43771
0.735271 -1.576941 -11.41221
0.735127 -1.511189 -11.409967
0.746464 -0.618419 -11.585936
0.748376 -0.562899 -11.615604
0.737643 -1.014487 -11.449019
0.738535 -0.964057 -11.462871
0.751054 -0.486114 -11.657168
0.753185 -0.432417 -11.690248
0.740046 -0.893091 -11.486318
0.741587 -0.82186 -11.510235
0.756264 -0.35484 -11.738038
0.75874 -0.298107 -11.776469
0.742834 -0.7642 -11.529595
0.744387 -0.692431 -11.553692
0.79956 0.22223 -12.410036
0.809278 0.294402 -12.560879
0.763846 -0.205401 -11.855721
0.767408 -0.145362 -11.911008
0.824283 0.37848 -12.793773
0.77233 -0.07263 -11.987393
0.776646 -0.008836 -12.054387
0.75054 -2.343485 -11.649199
0.745812 -2.207792 -11.575813
0.797799 -3.054142 -12.38271
0.743194 -2.10789 -11.535179
0.740262 -1.99602 -11.489679
0.77733 -2.842326 -12.065005
0.770233 -2.742911 -11.954852
0.738494 -1.897335 -11.462228
0.737124 -1.793043 -11.440971
0.761888 -2.599345 -11.825322
0.756599 -2.494705 -11.74324
0.7015 -1.42865 -11.424932
0.701376 -1.369914 -11.422924
0.747701 0.070881 -12.17739
0.755369 0.142154 -12.302262
0.701575 -1.302439 -11.426156
0.702229 -1.224016 -11.436811
0.702755 -1.71952 -11.445371
0.701948 -1.642624 -11.43224
0.702653 -1.173195 -11.443717
0.703271 -1.099162 -11.453775
0.701815 -1.579109 -11.430069
0.701677 -1.513266 -11.427821
0.712277 -0.619077 -11.600462
0.714103 -0.563499 -11.630196
0.704009 -1.015781 -11.465802
0.704808 -0.965215 -11.47881
0.716979 -0.48685 -11.677035
0.719017 -0.433074 -11.710221
0.706274 -0.894194 -11.502692
0.707747 -0.822878 -11.526671
0.721961 -0.355381 -11.758165
0.724143 -0.298486 -11.793716
0.708938 -0.765147 -11.546082
0.710422 -0.693291 -11.570246
0.764043 0.222788 -12.443536
0.774559 0.295609 -12.614801
0.729059 -0.205674 -11.873773
0.732938 -0.145651 -11.936948
0.791521 0.381286 -12.891061
0.737647 -0.072775 -12.01365
0.741778 -0.008854 -12.080927
0.716425 -2.346824 -11.668008
0.711817 -2.210644 -11.592969
0.765115 -3.072868 -12.460999
0.709424 -2.110928 -11.553994
0.706744 -1.999229 -11.510336
0.743242 -2.851153 -12.10477
0.735651 -2.748418 -11.981128
0.705021 -1.900293 -11.482277
0.703711 -1.795834 -11.460952
0.727522 -2.603999 -11.848747
0.722216 -2.498287 -11.762334
0.667963 -1.430629 -11.442827
0.667846 -1.371811 -11.440814
0.712728 0.071056 -12.209685
0.720055 0.142509 -12.335203
0.667926 -1.304031 -11.442186
0.66855 -1.225514 -11.452872
0.669279 -1.722213 -11.465364
0.668391 -1.644902 -11.450158
0.668954 -1.174631 -11.459795
0.669621 -1.100638 -11.471227
0.668264 -1.581298 -11.447982
0.668132 -1.515363 -11.445724
0.678029 -0.619755 -11.61526
0.680029 -0.564333 -11.649521
0.670375 -1.017222 -11.484138
0.671018 -0.966415 -11.495158
0.682798 -0.487593 -11.696961
0.684742 -0.433737 -11.730254
0.672416 -0.895308 -11.519102
0.673819 -0.823905 -11.543147
0.687549 -0.355927 -11.778356
0.689606 -0.298935 -11.813587
0.674955 -0.766104 -11.562611
0.67637 -0.69416 -11.586837
0.728345 0.223351 -12.477215
0.73955 0.29683 -12.669179
0.694624 -0.206084 -11.899551
0.698327 -0.145943 -11.96299
0.758268 0.384138 -12.989828
0.702823 -0.072922 -12.040014
0.706767 -0.008872 -12.107577
0.682672 -2.351789 -11.694806
0.678071 -2.214633 -11.615987
0.732032 -3.091885 -12.540378
0.675788 -2.114725 -11.576866
0.673229 -2.002811 -11.533042
0.709269 -2.861392 -12.150436
0.701372 -2.755724 -12.015147
0.67144 -1.903279 -11.502395
0.670191 -1.79865 -11.480996
0.693602 -2.610846 -11.882047
0.688156 -2.503446 -11.788753
0.634333 -1.432627 -11.460773
0.634222 -1.373727 -11.458754
0.677901 0.071266 -12.24793
0.684564 0.142867 -12.368312
0.634194 -1.305638 -11.458258
0.634855 -1.227158 -11.470205
0.635698 -1.72493 -11.485427
0.634819 -1.647405 -11.469545
0.635292 -1.176304 -11.478089
0.635927 -1.102209 -11.489572
0.634619 -1.583508 -11.465943
0.634494 -1.51748 -11.463679
0.643976 -0.620701 -11.634982
0.645878 -0.565197 -11.669352
0.636644 -1.018675 -11.502522
0.637143 -0.967626 -11.511544
0.648512 -0.488342 -11.716947
0.650361 -0.434405 -11.750346
0.638472 -0.896433 -11.535553
0.639807 -0.824942 -11.559659
0.653032 -0.356477 -11.798607
0.654988 -0.299399 -11.833952
0.640887 -0.76707 -11.579177
0.64226 -0.695068 -11.603983
0.693454 0.224238 -12.528927
0.704252 0.298064 -12.724017
0.660051 -0.206496 -11.92543
0.663577 -0.146237 -11.989136
0.667858 -0.07307 -12.066486
0.671614 -0.00889 -12.134334
0.648779 -2.356808 -11.721774
0.644204 -2.21866 -11.639101
0.699194 -3.114098 -12.632638
0.64203 -2.118556 -11.599829
0.639595 -2.006426 -11.555839
0.675054 -2.871744 -12.196486
0.666912 -2.763103 -12.049383
0.637754 -1.906292 -11.522579
0.636566 -1.801492 -11.50111
0.659504 -2.617758 -11.915547
0.654002 -2.508831 -11.816137
0.60062 -1.434671 -11.478985
0.600561 -1.375792 -11.477844
0.643012 0.071495 -12.289158
0.648894 0.143228 -12.40159
0.600491 -1.307507 -11.476521
0.601121 -1.228921 -11.488544
0.602011 -1.727672 -11.505553
0.601177 -1.65002 -11.489619
0.601534 -1.177995 -11.496451
0.602137 -1.103795 -11.507969
0.60088 -1.585738 -11.483954
0.600762 -1.519617 -11.481686
0.60993 -0.621769 -11.656909
0.611622 -0.566069 -11.689242
0.602817 -1.020143 -11.520958
0.603233 -0.968929 -11.528908
0.61412 -0.489098 -11.736988
0.615874 -0.435079 -11.770501
0.604443 -0.897569 -11.55204
0.605708 -0.825989 -11.576215
0.618407 -0.357033 -11.818916
0.620758 -0.300107 -11.863859
0.606793 -0.768123 -11.596953
0.608333 -0.696296 -11.626377
0.658364 0.225162 -12.582577
0.668659 0.299311 -12.779322
