4.1038323 -2.9089024 -0.61763383
4.0864644 -2.8976633 0.79343561
4.1487745 -2.9429349 -0.44501722
4.0945115 -2.9044434 0.9757972
4.1323384 -2.9323603 -0.26555264
4.0997828 -2.9103344 1.1607474
4.1249412 -2.9292766 -0.088309177
4.0868688 -2.9033131 1.3432708
4.1281341 -2.900225 0.26440125
4.1049433 -2.9053864 0.26356388
4.097025 -2.9202223 0.087820509
5.9323849 -4.229967 0.38184314
2.4230468 -1.7283425 -0.57853287
4.1275654 -2.9452509 0.44362273
3.0049489 -2.1449922 -0.58475203
4.1017308 -2.9289777 0.61885253
4.0737596 -2.9100776 -0.61470897
4.031318 -2.8797596 0.78467528
4.11254 -2.9388645 -0.44222824
4.0822415 -2.9182893 0.97541558
4.1134401 -2.9416774 -0.26502928
4.0558051 -2.9015304 1.1512995
4.1049328 -2.9366765 -0.088099748
4.0515737 -2.8995724 1.3349886
4.0840696 -2.9314603 0.0877507
5.9597592 -4.2809443 0.38456461
2.4074331 -1.7299161 -0.57624317
4.0946105 -2.9433599 0.44118237
2.9914034 -2.1503332 -0.58350055
4.0742671 -2.929815 0.6161714
4.064087 -2.9235707 -0.61470897
4.0484985 -2.9134292 0.78999405
4.124894 -2.9694988 -0.4446686
4.0629817 -2.9249283 0.97312588
4.1052833 -2.956469 -0.26513395
4.0129568 -2.8910428 1.1418516
4.1011461 -2.9556642 -0.088239367
4.0257571 -2.9023996 1.3298123
4.0931504 -2.9185381 0.2634592
4.0861822 -2.9351385 0.26366855
4.0635763 -2.9393775 0.087541271
5.9027098 -4.2712795 0.38184314
2.4077411 -1.7429139 -0.57776964
4.1004484 -2.9693204 0.44292548
2.9835019 -2.1612828 -0.58350055
4.0570719 -2.9400689 0.61519645
4.0629875 -2.9454374 -0.6161714
4.062294 -2.9449347 0.79468708
4.0951486 -2.969843 -0.44257686
4.009328 -2.9086729 0.96282219
4.0653239 -2.9503798 -0.26324986
3.988141 -2.8954276 1.1378024
4.0924221 -2.9711367 -0.088274272
3.9843393 -2.8937296 1.3194595
4.0538066 -2.9528366 0.087541271
4.0510659 -2.9530052 0.2627265
2.3921248 -1.7443674 -0.57547993
4.0771816 -2.9742221 0.44153099
2.9348256 -2.1408963 -0.57536596
4.0473 -2.9535065 0.61519645
4.0243379 -2.9378265 -0.6117841
4.0456084 -2.9544368 0.79343561
4.0976274 -2.9935221 -0.44397135
4.0107574 -2.9300592 0.96549352
4.068418 -2.9732724 -0.26408724
3.9989685 -2.9235883 1.1436512
4.0739555 -2.9795014 -0.088099748
4.0225469 -2.9429813 1.3355063
4.0742937 -2.9482132 0.26356388
4.0526289 -2.9747745 0.0877507
4.0407333 -2.9671281 0.2627265
2.3796923 -1.7480578 -0.57395346
4.0796189 -2.9978744 0.44292548
2.9460583 -2.1656787 -0.57912039
4.0444438 -2.9742009 0.61641514
4.0135432 -2.9525567 -0.6117841
4.0209501 -2.9580056 0.79061979
4.0743156 -2.9983599 -0.44257686
4.0300307 -2.9668544 0.97274426
4.0558849 -2.9869795 -0.26398256
4.016467 -2.9590313 1.1517494
4.0409909 -2.9770987 -0.08761108
4.0200252 -2.9627353 1.3380945
4.0363095 -2.9834426 0.08761108
4.0383801 -2.9871535 0.26324986
2.3641069 -1.7493471 -0.57166375
4.0499128 -2.9978719 0.44083375
2.891229 -2.1401779 -0.56973432
4.0329634 -2.9864151 0.6161714
3.9686376 -2.9398544 -0.60642185
4.007426 -2.9696711 0.78999405
4.0510201 -3.0030715 -0.44118237
4.0107072 -2.9731871 0.97045455
4.049166 -3.0027923 -0.26419191
4.0254135 -2.9862669 1.1571482
4.0402091 -2.9983365 -0.087820509
3.9956987 -2.9663859 1.3334357
4.0093103 -2.9862713 0.087262032
4.0247252 -2.9988452 0.26304052
2.3642825 -1.7622818 -0.57319022
4.0362291 -3.0096085 0.44048512
2.8960326 -2.1602091 -0.57223727
4.0108537 -2.9928663 0.61446523
3.9774432 -2.9679357 -0.60934672
4.0017845 -2.9871864 0.79093266
4.0341271 -3.0124256 -0.44048512
3.9903458 -2.9808175 0.96816484
4.029059 -3.0097365 -0.26356388
4.0024767 -2.9909679 1.153549
4.0185069 -3.0040401 -0.087576176
3.9853197 -2.9803154 1.3334357
4.0121835 -3.0091488 0.087541271
4.0067706 -3.006182 0.26251716
2.3521448 -1.7653984 -0.57166375
4.0230402 -3.020584 0.4401365
2.8730585 -2.1579375 -0.56910858
3.9929718 -3.0001881 0.61324654
3.9453608 -2.9644148 -0.60593438
3.9871194 -2.9968797 0.78999405
4.0241153 -3.0257866 -0.44048512
3.9788702 -2.9928534 0.96778322
4.0078833 -3.0146767 -0.26283117
3.989422 -3.0018807 1.1526492
4.0165113 -3.0233624 -0.0877507
3.9723282 -2.9911906 1.3324004
3.9952729 -3.018314 0.087401651
3.981912 -3.009312 0.26157511
2.3459681 -1.7735982 -0.57166375
4.0251846 -3.0442232 0.44153099
2.8875628 -2.184639 -0.57348875
3.980892 -3.01291 0.6130028
3.8526804 -2.9158739 -0.59325996
3.978209 -3.0119715 0.79030692
4.0167053 -3.0422209 -0.44083375
3.9699638 -3.0079097 0.96816484
3.9888484 -3.0233139 -0.26230781
3.9696009 -3.0087254 1.1499498
3.9915923 -3.0264906 -0.087436556
3.9741763 -3.0143781 1.3365415
3.9836503 -3.0303355 0.087366747
3.9798579 -3.0285474 0.26209847
2.3338252 -1.7766113 -0.57013728
3.992876 -3.0406552 0.43909063
2.874017 -2.1894142 -0.57223727
3.9677212 -3.0236881 0.61251532
3.81457 -2.9069759 -0.58887267
3.9587734 -3.0179616 0.7884297
4.0002579 -3.0506912 -0.4401365
3.9599674 -3.021058 0.96816484
3.9835639 -3.0401599 -0.26262183
3.9565035 -3.019508 1.14905
3.9799447 -3.0384971 -0.087401651
3.9411289 -3.009952 1.328777
3.9703984 -3.0443925 0.087331842
3.9681998 -3.0438066 0.26209847
2.3207561 -1.7807788 -0.56861081
3.9843323 -3.0583907 0.43943925
2.8624556 -2.1980274 -0.57161154
3.9671016 -3.0473656 0.61422149
3.8946862 -2.9917391 -0.60300951
3.9487224 -3.0343435 0.78874257
3.9853554 -3.0636001 -0.43978788
3.9390003 -3.0290602 0.96587513
3.9676447 -3.0510874 -0.26230781
3.949514 -3.0382422 1.1503997
3.9666637 -3.0525371 -0.087366747
3.932604 -3.0274195 1.3298123
3.9539496 -3.0526539 0.087192223
3.9596651 -3.0581697 0.26220314
2.3210524 -1.7932661 -0.57013728
3.9647098 -3.064276 0.43839339
2.8426489 -2.1978414 -0.56910858
3.947553 -3.0532173 0.61275906
3.872182 -2.994922 -0.6010596
3.9386385 -3.0474212 0.78874257
3.9688719 -3.0719211 -0.43909063
3.924277 -3.0384999 0.96473028
3.9575051 -3.0642278 -0.26230781
3.9347952 -3.0477426 1.14905
3.9549386 -3.0644494 -0.087331842
3.9225431 -3.0404439 1.3298123
3.9374898 -3.0608398 0.087052603
3.9368889 -3.0614751 0.26136577
2.3150929 -1.8009532 -0.57013728
3.9576713 -3.0798538 0.43874201
2.82911 -2.2024021 -0.56785711
3.9358402 -3.0650714 0.61251532
3.8810235 -3.0223824 -0.60398447
3.9285112 -3.0604655 0.78874257
3.9586632 -3.0850655 -0.43909063
3.9126311 -3.0502895 0.96434866
3.9284202 -3.0625987 -0.26105175
3.9246669 -3.0607741 1.14905
3.9431781 -3.0763176 -0.087296937
3.9078702 -3.0498691 1.3282593
3.9304674 -3.0763451 0.087122413
3.9219973 -3.0708196 0.26105175
2.2874698 -1.7916721 -0.56479463
3.9411631 -3.0880457 0.43804476
2.8342287 -2.2215205 -0.57036006
3.920968 -3.0744316 0.6117841
3.864731 -3.0303362 -0.60300951
3.9167864 -3.0722569 0.7884297
3.9515459 -3.1006358 -0.43943925
3.9086717 -3.0680963 0.96587513
3.9198137 -3.0768422 -0.26115642
3.8976358 -3.0605333 1.1441011
3.9282373 -3.0856709 -0.087192223
3.903811 -3.0675857 1.3303299
3.9170562 -3.0901758 0.087087508
3.9101773 -3.0858564 0.26105175
2.2836553 -1.8028752 -0.56555786
3.9386583 -3.1105649 0.43909063
2.8132777 -2.2225902 -0.56785711
3.9106916 -3.0906952 0.61202784
3.8748709 -3.0623854 -0.60642185
3.9003122 -3.0835983 0.7874911
3.9271095 -3.1058983 -0.43804476
3.893783 -3.0806456 0.9651119
3.9142359 -3.0968274 -0.26157511
3.8873836 -3.0766859 1.144551
3.9053857 -3.0920425 -0.086947889
3.8798884 -3.0729571 1.3261888
3.8973922 -3.0956857 0.086878079
3.8999227 -3.098806 0.26105175
2.2653691 -1.8006652 -0.56250492
3.9002511 -3.1012885 0.43595303
2.7842486 -2.2146913 -0.56347694
3.9019743 -3.1048826 0.61227158
3.8740143 -3.0826342 -0.60788428
3.8823376 -3.090364 0.78592675
3.898085 -3.1040107 -0.43595303
3.8743321 -3.0862015 0.96282219
3.9039449 -3.1097904 -0.26157511
3.8725874 -3.0859167 1.1432013
3.9013653 -3.1099621 -0.087087508
3.8591039 -3.0773752 1.3225653
3.8766521 -3.1024527 0.08666865
3.8932163 -3.1168238 0.26136577
2.2618189 -1.8114106 -0.56326815
3.8981876 -3.1230372 0.43699889
2.7668641 -2.2174691 -0.56159973
3.8859218 -3.1154381 0.61154037
3.8193237 -3.0620448 -0.6010596
3.8786898 -3.1107522 0.7874911
3.8928983 -3.1232642 -0.43665027
3.8538079 -3.0930079 0.96053248
3.8966477 -3.1285087 -0.26188913
3.871888 -3.1086299 1.1463506
3.8837042 -3.1192317 -0.086947889
3.8447868 -3.0890789 1.32153
3.8663427 -3.1152911 0.08666865
3.8797491 -3.1272103 0.26115642
2.2557996 -1.8189011 -0.56326815
3.8754036 -3.1259399 0.4356044
2.7779433 -2.2415177 -0.56535416
3.8709352 -3.1245666 0.61080915
3.8493099 -3.1071109 -0.60739681
3.8698897 -3.1248383 0.78780397
3.8887194 -3.1411642 -0.43734752
3.84353 -3.1057706 0.96053248
3.8676127 -3.1263466 -0.26063306
3.8494339 -3.1116519 1.1427514
3.8795588 -3.1371228 -0.087087508
3.8360239 -3.1030267 1.3220477
3.8554447 -3.1287682 0.08666865
3.850202 -3.1256283 0.25990036
2.2372446 -1.816863 -0.56021521
3.8814789 -3.1532676 0.43752183
2.776234 -2.2561842 -0.56660563
3.8615452 -3.1393119 0.61105289
3.7891508 -3.0804576 -0.59959717
3.8558933 -3.135835 0.78717823
3.8839131 -3.1597487 -0.43804476
3.8311427 -3.1179288 0.96015086
3.8572241 -3.1391548 -0.26063306
3.8325038 -3.1201487 1.1409517
3.8592813 -3.1430692 -0.086878079
3.8296621 -3.1200586 1.3236006
3.8481453 -3.1440666 0.08673846
3.8568267 -3.1522823 0.26105175
2.2281676 -1.8217866 -0.55945197
3.844783 -3.1446779 0.43455853
2.7717946 -2.2678799 -0.56723137
3.8418968 -3.1445561 0.60959046
3.7942763 -3.1055792 -0.60203456
3.8271324 -3.1335872 0.7834238
3.8610828 -3.162511 -0.43665027
3.8314123 -3.1393262 0.96282219
3.8498828 -3.1544603 -0.26084241
3.8161074 -3.1278991 1.1391521
3.8457446 -3.1533139 -0.08680827
3.7834467 -3.1033372 1.3111773
3.8273324 -3.1505243 0.086529031
3.8282873 -3.1524314 0.25990036
2.2123835 -1.8224515 -0.55716227
3.8393817 -3.1638168 0.43525578
2.7238333 -2.2453549 -0.55909678
3.8456608 -3.1712456 0.61202784
3.767553 -3.1068356 -0.59959717
3.8232406 -3.1538784 0.78498815
3.8402454 -3.1690326 -0.4356044
3.8047402 -3.1408495 0.95900601
3.8346622 -3.1666759 -0.26063306
3.8106279 -3.1468283 1.1409517
3.831078 -3.1648409 -0.08673846
3.3521033 -2.770146 1.1652033
3.8168639 -3.1631989 0.086529031
3.8316507 -3.1765815 0.26084241
2.2184173 -1.8398042 -0.56021521
3.8166019 -3.1663541 0.43386129
2.7285331 -2.2644675 -0.56159973
3.8137408 -3.1662287 0.6086155
3.772503 -3.1319923 -0.60203456
3.8066824 -3.1614911 0.78373667
3.8297154 -3.1817499 -0.4356044
3.7897742 -3.1496847 0.95786116
3.8149252 -3.1717136 -0.26000503
3.7986731 -3.1582017 1.1405018
3.8267117 -3.1826425 -0.086878079
3.3458689 -2.7837178 1.1662386
3.8016204 -3.1752674 0.086459221
3.8010332 -3.1759033 0.25958634
2.1932603 -1.8332 -0.55563579
3.8166438 -3.1912096 0.43525578
2.7076963 -2.2647886 -0.55909678
3.81069 -3.1884922 0.61007793
3.7787186 -3.161741 -0.60495942
3.7930003 -3.1748165 0.7834238
3.8174702 -3.1964315 -0.4356044
3.7701272 -3.1579099 0.95595307
3.7925569 -3.1766973 -0.25927233
3.7671005 -3.1564936 1.1346531
3.808333 -3.1921743 -0.08673846
3.3292343 -2.7915795 1.1641681
3.7880089 -3.1852826 0.086389412
3.802708 -3.198776 0.26042372
2.1901735 -1.8429911 -0.55639903
3.8014677 -3.1999992 0.43473284
2.6941271 -2.2686657 -0.5578453
3.7879499 -3.1908801 0.60812802
3.7530309 -3.1614652 -0.60252203
3.7794303 -3.1848312 0.78279806
3.8098962 -3.2116414 -0.43595303
3.764137 -3.1741916 0.95709792
3.7820018 -3.1892564 -0.25927233
3.677667 -3.1023723 1.1108083
3.7992547 -3.2060752 -0.086773365
3.3317683 -2.8125735 1.1683092
3.7804778 -3.2004107 0.086459221
3.7676932 -3.1907167 0.25874897
2.1810539 -1.8477058 -0.55563579
3.7908352 -3.2125877 0.43473284
2.7257654 -2.3107994 -0.56597989
3.7818896 -3.2072757 0.60885924
3.6698561 -3.1122643 -0.59082258
3.7628229 -3.1922351 0.78154659
3.7961869 -3.2216794 -0.4356044
3.7670601 -3.1980918 0.96053248
3.7759727 -3.2056583 -0.25958634
3.6658736 -3.1132894 1.1103584
3.7764102 -3.2082987 -0.086494126
3.3135908 -2.8161003 1.1652033
3.7668002 -3.2103354 0.086389412
3.7722902 -3.2161512 0.25979569
2.1674459 -1.8485583 -0.5537277
3.7574255 -3.2057435 0.43211817
2.6850317 -2.2916133 -0.55909678
3.7727428 -3.2210882 0.60910298
3.4874093 -2.9774765 -0.56303637
3.7492122 -3.2021297 0.78092085
3.7854825 -3.2342503 -0.4356044
3.7430023 -3.1990863 0.95709792
3.7607668 -3.2142693 -0.25927233
3.7414373 -3.1988789 1.1364527
5.4039582 -4.6219448 -0.12412151
3.2983625 -2.8220494 1.1631328
3.762711 -3.2182046 -0.086424317
3.7483778 -3.2195634 0.086249793
3.7447646 -3.2175959 0.25874897
2.1677763 -1.8632656 -0.55563579
3.7405565 -3.2162504 0.43159524
2.664232 -2.291601 -0.55659383
3.7528233 -3.229077 0.60788428
3.6685578 -3.1565717 -0.59423492
3.7413807 -3.220368 0.78185946
3.7609575 -3.2383614 -0.43420991
3.7217661 -3.2057471 0.95480821
3.7514237 -3.2312928 -0.25948167
3.7306032 -3.2144934 1.1369026
3.7488116 -3.231323 -0.086389412
3.2787239 -2.8271241 1.160027
3.7346555 -3.2293598 0.086179983
3.7446479 -3.2391427 0.25948167
2.1437703 -1.8550282 -0.55105638
3.7464409 -3.2429806 0.43351266
2.6446715 -2.2900785 -0.55409088
3.7300911 -3.2311063 0.60593438
3.65807 -3.1687197 -0.59423492
3.7262024 -3.2288763 0.78092085
3.747187 -3.2482054 -0.43386129
3.6918326 -3.2013507 0.94984718
3.7316341 -3.2358643 -0.25885364
3.5359142 -3.0672284 1.0806649
5.3798081 -4.6683597 -0.12433094
3.2620365 -2.8316493 1.1574388
3.7365652 -3.2424261 -0.086354507
3.7203441 -3.2397501 0.086110173
3.7137407 -3.2351395 0.25812094
2.1550433 -1.8779779 -0.55563579
3.7411054 -3.2612753 0.43420991
2.6307064 -2.294103 -0.5528394
3.7187897 -3.244107 0.60593438
3.5841594 -3.1266615 -0.58399789
3.7104438 -3.237967 0.77998224
3.7448314 -3.2691273 -0.43490716
3.262146 -2.8487606 0.84184929
3.7167407 -3.2468917 -0.2586443
3.5824226 -3.1295534 1.098211
3.7237185 -3.2541336 -0.086319602
3.2855845 -2.8722626 1.1693444
3.711084 -3.2533876 0.086145078
3.7059954 -3.2500707 0.25833028
2.1429006 -1.8799351 -0.55410932
3.72428 -3.2684065 0.43351266
2.6379292 -2.3158465 -0.55596809
3.709503 -3.2577311 0.60617811
3.5469232 -3.1149515 -0.5796106
3.6907817 -3.242431 0.77810503
3.7309768 -3.2788972 -0.43455853
3.3308282 -2.9282647 0.86207504
3.699954 -3.2539231 -0.25822561
3.6349488 -3.1967543 1.1175568
3.7084028 -3.2625014 -0.086214888
3.2992451 -2.9035628 1.1776267
3.6985645 -3.2676131 0.086145078
3.6904956 -3.2616314 0.25812094
2.1180162 -1.8725448 -0.54952991
3.7057331 -3.2774028 0.43281542
2.6142229 -2.312869 -0.5528394
3.6969669 -3.2719505 0.60617811
3.6087048 -3.1949587 -0.59179753
3.6783045 -3.2565786 0.77810503
3.7153763 -3.2905569 -0.43420991
3.231391 -2.8629175 0.83917796
3.690422 -3.2707554 -0.25843495
3.6075053 -3.1983921 1.1130578
3.6868706 -3.2687569 -0.086005459
3.2721736 -2.9021092 1.1719326
3.6727663 -3.2665705 0.08579603
3.6835637 -3.2784774 0.25843495
2.1085343 -1.8773157 -0.54876667
3.679392 -3.2770669 0.4310723
2.62129 -2.3346636 -0.55596809
3.6757214 -3.2749483 0.60447194
3.4973199 -3.1170935 -0.5752233
3.6639657 -3.2667693 0.77747929
3.7068412 -3.3061583 -0.43455853
3.2116234 -2.8644699 0.83650664
3.6765749 -3.2803159 -0.25822561
3.6172334 -3.2285042 1.1193564
3.6903546 -3.2949248 -0.086354507
3.2865174 -2.9353907 1.1807325
3.6583623 -3.2767026 0.08572622
3.6637465 -3.2826777 0.25780692
2.1110691 -1.8921597 -0.55105638
3.6729549 -3.2932404 0.43159524
2.5690087 -2.3042305 -0.54658202
3.6568796 -3.2811304 0.60325325
3.3830072 -3.0364647 -0.55816159
3.663403 -3.2881378 0.77966937
3.6928923 -3.3157703 -0.43420991
3.1972232 -2.8717275 0.83536178
3.6591595 -3.2877901 -0.25780692
3.6218844 -3.2554407 1.1243054
3.6645357 -3.2937768 -0.086005459
3.360085 -3.0211892 1.2107555
3.6549019 -3.2955116 0.085900744
3.6448513 -3.2887567 0.25728356
2.0869628 -1.8837317 -0.54647696
3.6717883 -3.315388 0.43281542
2.5701504 -2.32068 -0.54845923
3.6518714 -3.2985614 0.6042282
3.4023771 -3.0742836 -0.56303637
3.6372484 -3.2876594 0.77654068
3.6990296 -3.3446759 -0.43630165
3.2532128 -2.9415667 0.85253459
3.6452742 -3.2972266 -0.25759758
3.4275534 -3.1013814 1.0671678
3.6663589 -3.3186258 -0.086319602
3.4970177 -3.1664562 1.2640722
3.6383581 -3.3048518 0.08579603
3.631871 -3.3001164 0.25717889
2.0803747 -1.8910051 -0.54647696
3.6646154 -3.3322059 0.43333835
2.5411694 -2.3114757 -0.54407907
3.6368206 -3.3092521 0.60374073
3.3916251 -3.0861414 -0.56303637
3.6155245 -3.2910278 0.7743506
3.6667077 -3.3387877 -0.43386129
3.2728888 -2.9812338 0.86054857
3.6361174 -3.3132555 -0.25780692
3.5169775 -3.2058181 1.0986609
3.6325845 -3.3111969 -0.08579603
3.5016458 -3.192962 1.2697662
3.6214758 -3.3115011 0.085656411
3.6247497 -3.3168188 0.2574929
2.0679685 -1.892953 -0.54495049
3.6309203 -3.3247946 0.43072368
2.5305766 -2.3172217 -0.54345333
3.6228991 -3.3186123 0.60325325
3.3252164 -3.0469995 -0.5537743
3.6069269 -3.3062979 0.77497634
3.6609047 -3.3569527 -0.43455853
3.6044767 -3.3052098 0.95061041
3.6309976 -3.3306955 -0.25822561
3.5551459 -3.2622599 1.1139576
3.6239504 -3.3265613 -0.08586584
3.2813064 -3.0130908 1.1936734
3.6069524 -3.3214131 0.085586601
3.6137308 -3.3288206 0.2574929
2.0674549 -1.9051218 -0.54647696
3.61841 -3.3354665 0.43054937
2.5486122 -2.350145 -0.54908497
3.6098338 -3.3298924 0.60300951
3.4225168 -3.1582076 -0.57181096
3.5988465 -3.32092 0.77560208
3.6468245 -3.3663715 -0.43420991
3.591475 -3.3164397 0.9502288
3.6149478 -3.339284 -0.25791159
3.4893499 -3.2243927 1.0968613
3.6217112 -3.3467033 -0.086075269
3.3351337 -3.0829658 1.2169672
3.5929853 -3.3306371 0.085516792
3.6035533 -3.3427729 0.25759758
2.0607922 -1.912327 -0.54647696
3.593603 -3.3358773 0.42898057
2.5292228 -2.3478322 -0.54658202
3.5842253 -3.3283369 0.60057212
3.3596665 -3.1209023 -0.56303637
3.5785501 -3.325394 0.77372486
3.63797 -3.3817938 -0.43455853
3.5459471 -3.2962509 0.94106997
3.5936163 -3.3417327 -0.25717889
3.2888684 -3.0594158 1.0370244
3.6129348 -3.3620496 -0.086145078
3.2621351 -3.0366723 1.1941911
3.5792923 -3.3424188 0.085481887
1.7871927 -1.6695024 -0.56462715
3.5787273 -3.3430607 0.25665553
2.0512355 -1.9168279 -0.54571373
3.5819367 -3.348401 0.42898057
2.509058 -2.3462928 -0.54407907
3.5691029 -3.3387392 0.60008465
3.5640358 -3.3351657 0.77309913
3.6261432 -3.3944721 -0.43455853
3.1153984 -2.9173787 0.82963751
3.5784288 -3.3521506 -0.25696955
3.2008468 -2.9994937 1.0127296
3.6040953 -3.3773753 -0.086214888
3.2684282 -3.0638953 1.2004027
3.5711027 -3.3570091 0.085551696
3.5626718 -3.351427 0.25634151
2.0359536 -1.9159038 -0.54342402
3.5673254 -3.3581525 0.42863194
2.5012637 -2.3546002 -0.54407907
3.5580116 -3.3505564 0.60008465
3.5595603 -3.35436 0.77466347
3.6113726 -3.4043756 -0.43420991
3.0928498 -2.9155735 0.82620295
3.5760115 -3.3722203 -0.25759758
3.1923001 -3.0114288 1.0131795
3.5850123 -3.3830732 -0.086040364
3.2563085 -3.0739595 1.1998851
3.5529668 -3.3645754 0.085412077
3.5538513 -3.3665897 0.25655086
2.0264034 -1.9202981 -0.54266078
3.5555815 -3.3705844 0.42863194
2.4668163 -2.3392853 -0.53844743
3.551468 -3.3690394 0.6010596
3.32625 -3.1564934 -0.56303637
3.5392324 -3.3586062 0.77278626
3.5850173 -3.4032437 -0.4324668
3.0835665 -2.9282417 0.82658457
3.5636276 -3.3853043 -0.25759758
3.1911296 -3.0325058 1.0163289
3.567383 -3.3900565 -0.085900744
3.2357575 -3.0759902 1.1962616
3.5273159 -3.3625411 0.085063029
3.5493039 -3.3858675 0.25707422
2.0211082 -1.9287152 -0.5430424
3.5437943 -3.3829751 0.42863194
2.4961954 -2.3829168 -0.54658202
3.5474545 -3.3876528 0.6022783
3.5303434 -3.3736694 0.773412
3.581757 -3.4239976 -0.43351266
3.0894496 -2.953374 0.83078237
3.5480516 -3.392962 -0.25728356
3.1909131 -3.0525009 1.0194782
3.5613068 -3.4080186 -0.086040364
3.2333735 -3.0952818 1.1993675
3.518705 -3.3802162 0.085167743
3.5296697 -3.3919341 0.25655086
2.0239329 -1.9456341 -0.54571373
3.5328074 -3.3973221 0.42880625
2.4670969 -2.3733112 -0.54220186
3.515826 -3.383355 0.59910969
3.5179546 -3.3865861 0.773412
3.5577023 -3.4260462 -0.43211817
3.0865702 -2.9733872 0.83307207
3.5249303 -3.3968592 -0.25655086
3.1749599 -3.0606731 1.0181285
3.5430332 -3.4154972 -0.085900744
3.2206164 -3.1057709 1.1988498
3.508914 -3.3932562 0.085202648
1.7577837 -1.7004389 -0.56462715
3.5091967 -3.3959008 0.25592283
2.0030233 -1.9390319 -0.54189755
3.520927 -3.4096332 0.42880625
2.4393465 -2.3622406 -0.53782169
3.5088644 -3.3991389 0.59984091
3.1675654 -3.0695844 -0.54158736
3.4933468 -3.386471 0.77059617
3.5485821 -3.441218 -0.4324668
3.0795119 -2.9863398 0.83383531
3.5193807 -3.4140923 -0.25696955
3.1536049 -3.0603278 1.0145293
3.5239152 -3.4208795 -0.08572622
3.2152993 -3.1223774 1.2009204
3.504211 -3.4124595 0.085377172
1.7518374 -1.7065644 -0.56462715
3.4921936 -3.4019444 0.25550414
2.0022064 -1.9511443 -0.54342402
3.5067475 -3.4185087 0.42845763
2.4423998 -2.3817742 -0.54032464
3.4941359 -3.4085941 0.59935343
3.1099476 -3.0348708 -0.53354399
3.4750288 -3.3911386 0.76903183
3.5314483 -3.4473996 -0.43176955
3.1280624 -3.0546807 0.84986327
3.5031558 -3.4221694 -0.25665553
3.1554469 -3.0835753 1.0185784
3.5025404 -3.4227631 -0.085481887
3.2021646 -3.1303217 1.1998851
3.4871637 -3.4184616 0.085237553
1.7461686 -1.7123643 -0.56462715
3.4860004 -3.4197083 0.25592283
1.9743646 -1.9374951 -0.53769975
3.4791535 -3.4153756 0.42654021
2.4429461 -2.3981634 -0.54220186
3.496977 -3.434071 0.60179082
3.1239404 -3.0688161 -0.53768754
3.4645793 -3.4046326 0.7693447
3.5108682 -3.4513252 -0.43072368
3.4749287 -3.4159953 0.94717585
3.4932123 -3.4351679 -0.2567602
3.1507609 -3.0994887 1.020378
3.4877208 -3.4321632 -0.085412077
3.1857113 -3.1360592 1.1978145
3.4703424 -3.4270045 0.085132839
3.4768839 -3.4346631 0.25613217
1.966193 -1.9429952 -0.53731813
3.4785458 -3.4387049 0.4279347
2.4060483 -2.3793215 -0.53594448
3.4702545 -3.4329045 0.59935343
3.0821618 -3.0489888 -0.53232529
3.4540779 -3.418095 0.76965757
3.4903037 -3.4551493 -0.42967781
3.4540152 -3.4204201 0.94488615
3.4735037 -3.44092 -0.25623684
3.1504532 -3.1219896 1.0239772
3.4828211 -3.4513546 -0.085586601
3.1857208 -3.1580408 1.2019556
3.451868 -3.4314448 0.084958315
3.4549617 -3.4369188 0.25539947
1.9719233 -1.9623101 -0.54075269
3.4862896 -3.4705051 0.43037506
2.3925451 -2.3817127 -0.534693
3.4475986 -3.4331875 0.59740352
3.0799382 -3.0681348 -0.53378772
3.4477224 -3.4357086 0.77090904
3.4782217 -3.4673117 -0.42967781
3.4412632 -3.4304691 0.94450453
3.4578314 -3.4481888 -0.25592283
3.1290458 -3.1214095 1.020378
3.4707524 -3.4634909 -0.085586601
3.2238976 -3.2182757 1.2205906
3.449159 -3.4539783 0.085202648
1.7278392 -1.7308575 -0.56462715
3.4401215 -3.4461309 0.25519012
1.9567409 -1.9608434 -0.53846298
3.4572688 -3.4657268 0.42828332
2.389379 -2.3960608 -0.53594448
3.4349922 -3.4458006 0.59740352
3.0490552 -3.059717 -0.53037538
3.4329198 -3.444924 0.77028331
3.4773464 -3.4907241 -0.4310723
3.4383641 -3.4527969 0.94717585
3.447988 -3.4636701 -0.25613217
3.1230827 -3.1383823 1.0221776
3.4642835 -3.4812547 -0.08572622
3.1922074 -3.2089657 1.212826
3.436278 -3.4639775 0.085167743
1.72209 -1.7365777 -0.56462715
3.4336957 -3.4637919 0.25560881
1.938829 -1.9565056 -0.53541004
3.4591718 -3.4919283 0.43002643
2.3869811 -2.4095846 -0.53719595
3.4235466 -3.4571725 0.59740352
3.0528575 -3.0839188 -0.53281277
3.415316 -3.4512697 0.76903183
3.4595355 -3.4971753 -0.43037506
3.4241339 -3.4613885 0.94641262
3.4449093 -3.4836059 -0.2567602
3.1208783 -3.1570369 1.024877
3.4394604 -3.4805249 -0.085412077
3.1484029 -3.1871048 1.2004027
3.4179464 -3.4708496 0.085028124
1.7157136 -1.7428778 -0.56462715
3.422985 -3.4771799 0.25571348
1.9333648 -1.9646608 -0.53579166
3.4301949 -3.4869377 0.4279347
2.3532026 -2.3929649 -0.53156431
3.4178106 -3.4767753 0.59862221
3.4018635 -3.4617614 0.76871896
3.4305522 -3.4921743 -0.42828332
3.4127998 -3.4753161 0.94679424
3.430719 -3.4947834 -0.25665553
2.9495906 -3.0057198 0.97223846
3.4202871 -3.4853733 -0.085237553
3.14267 -3.2035916 1.2024733
3.4008244 -3.476447 0.084888505
1.7099245 -1.7485578 -0.56462715
3.4094304 -3.487679 0.25560881
1.926495 -1.9713975 -0.53579166
3.4263559 -3.5074414 0.42898057
2.3259291 -2.3809727 -0.52718415
3.4007147 -3.4824091 0.59764726
3.400796 -3.4849251 0.77122191
3.4294715 -3.5155373 -0.42967781
3.393031 -3.4781823 0.94450453
3.4121389 -3.4989913 -0.25613217
3.4178693 -3.5073161 -0.085481887
3.1543847 -3.2380665 1.2112731
3.3872752 -3.4868625 0.0848536
1.7038105 -1.7545159 -0.56462715
3.3964547 -3.497533 0.25550414
1.9295194 -1.9876359 -0.53846298
3.3966681 -3.5001966 0.42671452
2.3341089 -2.4060914 -0.53093857
3.391302 -3.4971087 0.59813474
3.0535568 -3.1499259 -0.5386625
3.3892209 -3.4961834 0.77122191
3.4177947 -3.5268905 -0.42967781
3.3795032 -3.4885949 0.94412291
3.3929573 -3.5037067 -0.25560881
3.4090016 -3.5215044 -0.085551696
3.1422861 -3.2471207 1.2107555
3.3798596 -3.5023928 0.084958315
3.3772933 -3.5021792 0.25498078
1.9225695 -1.994359 -0.53846298
3.3941071 -3.5220745 0.4279347
2.3178929 -2.4052839 -0.52906136
3.370046 -3.498328 0.59642857
3.3660364 -3.4966078 0.76871896
3.4123703 -3.5459774 -0.43054937
3.367916 -3.4997825 0.94412291
3.3882432 -3.5221358 -0.25613217
2.8150041 -2.9272666 0.93759599
3.3939168 -3.5304994 -0.085481887
3.1202238 -3.2469261 1.2066144
3.3677695 -3.516789 0.084993219
1.6912119 -1.766663 -0.56462715
3.3658156 -3.5159768 0.25508545
1.8840275 -1.9687685 -0.52968577
3.3811753 -3.5344909 0.4279347
2.3222927 -2.4284428 -0.53219005
3.3840229 -3.5399406 0.60130334
3.3477391 -3.5032089 0.76746749
3.3869645 -3.5454945 -0.42898057
3.2446265 -3.3976814 0.91321185
3.3664195 -3.5264517 -0.25550414
2.7902899 -2.9239556 0.93309697
3.3726708 -3.5342349 -0.085272458
3.0842999 -3.2331796 1.1972969
3.3560889 -3.5279376 0.084993219
3.3507698 -3.5248092 0.25487611
1.8987822 -1.9981034 -0.53579166
3.3578392 -3.5347157 0.42654021
2.2870167 -2.4074869 -0.52593267
3.3531282 -3.5309905 0.597891
3.3395695 -3.519172 0.76840609
3.3622268 -3.5442864 -0.42741176
2.9090616 -3.066583 0.82162353
3.3629528 -3.5462912 -0.25613217
2.832865 -2.988349 0.95064316
3.3630644 -3.5488892 -0.085342267
3.0437666 -3.2130716 1.1859089
3.3368876 -3.5323628 0.084818695
1.6791476 -1.7781337 -0.56462715
3.3527755 -3.5504225 0.25592283
1.874626 -1.9858299 -0.53083063
3.3488341 -3.5487294 0.42688883
2.251489 -2.3867171 -0.51967529
3.3516776 -3.5542274 0.59984091
3.0092793 -3.1922532 -0.5386625
3.2560661 -3.4540454 0.75182404
3.3559207 -3.5612165 -0.42810901
2.8283378 -3.0024089 0.8017794
3.3423379 -3.5492843 -0.25550414
3.0534993 -3.2436958 1.0284762
3.3457947 -3.5541978 -0.085202648
3.0132361 -3.2020444 1.1781443
3.3210504 -3.5390343 0.084713981
1.6732418 -1.7836922 -0.56462715
3.3335308 -3.5548198 0.25539947
1.8717108 -1.9966584 -0.53197548
3.3432381 -3.5676665 0.42776039
2.2570693 -2.4085842 -0.52280398
3.3208732 -3.5450402 0.59642857
2.9986769 -3.2022148 -0.5386625
3.21564 -3.4351059 0.74525379
3.3475533 -3.5772735 -0.42863194
2.7848299 -2.9759341 0.79223895
3.3291853 -3.5588898 -0.25539947
3.042726 -3.2538038 1.0284762
3.3333679 -3.5658552 -0.085202648
2.9928076 -3.2026626 1.1745208
3.3101626 -3.554687 0.08478379
1.6663806 -1.7901038 -0.56462715
3.3191185 -3.565552 0.25529479
1.8603678 -1.9991935 -0.53083063
3.3314965 -3.5813549 0.4279347
2.2410785 -2.4100001 -0.52123964
3.21398 -3.4574441 0.5796106
3.2164749 -3.4613392 0.74838248
3.3398435 -3.5953578 -0.42932919
2.7346408 -2.9448847 0.78117203
3.3005487 -3.555545 -0.25424808
3.0143033 -3.2483215 1.0230774
3.3284373 -3.5868435 -0.085412077
2.9876182 -3.2206918 1.177109
3.3092199 -3.5773879 0.085063029
1.6604353 -1.7956199 -0.56462715
3.2985177 -3.5683164 0.25466676
1.8333919 -1.9840468 -0.52510636
3.3122153 -3.5856445 0.42706314
2.2210109 -2.4043592 -0.51842382
3.2011504 -3.4666246 0.57936686
3.2753729 -3.5494876 0.76496453
3.3043077 -3.5820981 -0.42636589
2.7874241 -3.0217606 0.79910807
3.0247201 -3.2801544 -0.23383705
3.0021941 -3.2568665 1.0226275
3.2969254 -3.5778523 -0.08492341
2.9554159 -3.2083667 1.1688268
3.2839132 -3.5762365 0.084748886
1.6538428 -1.8016937 -0.56462715
3.2887431 -3.5827513 0.25487611
1.8423835 -2.0077928 -0.52968577
3.1973215 -3.4855983 0.41381547
2.2308743 -2.4328666 -0.52280398
3.2501258 -3.5456473 0.59057884
2.8780197 -3.1408074 -0.52306322
3.1855593 -3.4764279 0.74681814
3.0320477 -3.3100591 -0.39272378
2.7352287 -2.987071 0.78727791
2.9951461 -3.2720664 -0.23247632
2.8810466 -3.1485208 0.98528562
3.2965657 -3.6026164 -0.085237553
2.938983 -3.2129617 1.1667563
3.2747312 -3.5900615 0.084818695
3.2789079 -3.5971615 0.25508545
1.8208184 -1.998249 -0.52548797
3.1650099 -3.4746439 0.41120079
2.2121526 -2.4285682 -0.52030103
3.2664167 -3.5872288 0.59569735
2.9317285 -3.2207981 -0.53476268
2.7825456 -3.0579777 0.65483467
2.993662 -3.2911454 -0.38923755
2.7266292 -2.9975773 0.78765953
2.9721861 -3.2686813 -0.23153427
2.9938024 -3.2936087 1.0275764
3.2906941 -3.6215015 -0.085412077
2.9108639 -3.2046112 1.160027
3.2548399 -3.5946283 0.084644171
1.6412244 -1.8131957 -0.56462715
3.2435462 -3.5834123 0.25330603
1.8151493 -2.0060484 -0.52586959
3.1689002 -3.5034019 0.41329253
2.1939626 -2.4264033 -0.51811095
3.2505847 -3.5962314 0.59520987
2.9145806 -3.2256303 -0.53378772
2.7215292 -3.011976 0.64294565
2.9701361 -3.2882683 -0.38766874
2.7445699 -3.0396079 0.79605513
2.9427887 -3.2602789 -0.23017354
2.9020765 -3.2163027 1.0001324
3.2793723 -3.6344508 -0.085446982
2.7094547 -3.0038785 1.0839342
3.2536001 -3.617296 0.08492341
3.1255426 -3.4773645 0.24503695
1.8146966 -2.019674 -0.52777768
3.2551723 -3.6241295 0.42619158
2.1898643 -2.4380742 -0.51904956
3.2386413 -3.606991 0.59520987
2.8667409 -3.1939133 -0.52696304
2.6872529 -2.9949923 0.63731401
2.9506579 -3.2897168 -0.38662287
2.7488946 -3.0647691 0.80025293
2.9172946 -3.2536621 -0.22902214
2.7236081 -3.0387102 0.94209502
3.2546559 -3.6324718 -0.085132839
2.7131306 -3.0291472 1.0896282
3.2356252 -3.6226655 0.08478379
1.5535672 -1.7400136 -0.53853282
3.1139941 -3.4877101 0.24503695
1.8014526 -2.0183572 -0.52586959
3.2510949 -3.6438241 0.42723745
2.1839702 -2.4486518 -0.51967529
3.1322355 -3.5130743 0.57790443
2.8582162 -3.2068645 -0.52745052
2.6497053 -2.9729192 0.63074376
2.9238278 -3.2816324 -0.38453114
2.8335004 -3.1813688 0.82811104
2.9059194 -3.2638255 -0.22902214
2.7453744 -3.0845909 0.95334257
3.2386039 -3.6387634 -0.085028124
2.9329279 -3.2964767 1.1822854
3.2222671 -3.6318795 0.084748886
1.558133 -1.7568194 -0.54213204
3.1866001 -3.5942049 0.25173595
1.777468 -2.0055328 -0.52090856
3.2198585 -3.6342723 0.42479709
2.1614286 -2.4396166 -0.51623373
3.1995369 -3.6126053 0.59252875
2.8462503 -3.2148388 -0.52720678
2.6393117 -2.9821502 0.63074376
2.9017934 -3.2798807 -0.38313665
2.8398466 -3.2098627 0.83307207
2.8924339 -3.2704518 -0.2288128
2.737712 -3.0965979 0.95424237
3.2205855 -3.6440526 -0.084888505
2.9533801 -3.3428886 1.1952264
3.0774818 -3.4956345 0.081293309
1.6157483 -1.835934 -0.56462715
3.2143098 -3.6523391 0.25498078
1.772699 -2.0149821 -0.52167179
3.2196742 -3.6610105 0.42654021
2.1611751 -2.4582829 -0.51842382
3.2052983 -3.6472305 0.59618483
2.8509174 -3.2451311 -0.53037538
2.6766027 -3.0467129 0.64231991
2.8858083 -3.2860032 -0.38261371
2.8508149 -3.2472999 0.8399412
2.8732679 -3.274028 -0.22828944
2.9532732 -3.3663773 1.033875
3.216439 -3.6663547 -0.085132839
2.9487505 -3.3624055 1.1983322
3.065873 -3.5058206 0.081293309
1.563478 -1.7884643 -0.54843067
3.1949699 -3.6560173 0.25445742
1.7798625 -2.0374216 -0.52586959
3.2068753 -3.6722269 0.42654021
2.1400179 -2.4505572 -0.51529513
3.1840477 -3.6473715 0.59447866
2.8140362 -3.224654 -0.52550061
2.9009914 -3.3254688 0.69894919
2.8717015 -3.2930533 -0.38226509
2.8593859 -3.2789307 0.84566547
2.8440211 -3.2624608 -0.22682403
3.0329938 -3.4804632 1.0658181
3.2036214 -3.6775598 -0.085132839
2.9420702 -3.3785056 1.2004027
3.1106809 -3.5834787 0.082829121
1.6028918 -1.8471692 -0.56462715
3.1769526 -3.6611136 0.25403873
1.7585887 -2.0273087 -0.52167179
3.2070901 -3.6984513 0.42828332
2.1349034 -2.4628622 -0.51623373
3.02246 -3.487993 0.56669245
2.7931003 -3.2244432 -0.52379444
2.6526808 -3.0623385 0.64169418
2.8562764 -3.2985388 -0.38174215
3.0940505 -3.57439 0.91893612
2.8346583 -3.2758834 -0.22703338
2.9883447 -3.45471 1.0545705
3.1148877 -3.6010015 -0.083108359
2.9353135 -3.3945999 1.2024733
3.1706023 -3.6770687 0.084748886
3.166761 -3.675207 0.25424808
1.7425324 -2.0230223 -0.51900047
3.16036 -3.6703684 0.42375122
2.1460584 -2.4923821 -0.52092677
2.9823868 -3.4648973 0.5613302
2.7733292 -3.2231545 -0.52208827
2.6612972 -3.0940434 0.64638721
2.8382501 -3.3009353 -0.3808706
3.1628188 -3.6784145 0.94297806
2.8198739 -3.2807215 -0.22671936
2.985762 -3.4749472 1.0577199
3.0071843 -3.5011154 -0.080560308
2.9133784 -3.3930998 1.1983322
3.1506024 -3.6810688 0.084574362
3.1591066 -3.6923091 0.25466676
1.7354601 -2.0290926 -0.51900047
2.9740327 -3.4784552 0.40039348
2.1215078 -2.4822114 -0.51717234
3.1218256 -3.6538967 0.59009136
2.6950085 -3.1543346 -0.50941386
2.5927501 -3.0357203 0.63230811
2.8215356 -3.3047616 -0.38017335
3.1416685 -3.6810222 0.94068835
2.818201 -3.3031901 -0.22755674
2.9679473 -3.4799364 1.0559202
3.0221951 -3.5435423 -0.081293309
2.8914897 -3.391488 1.1941911
3.1448545 -3.6991139 0.084748886
2.957401 -3.4810847 0.23938466
1.7220124 -2.027656 -0.51709238
3.0895283 -3.6391822 0.41765032
2.1132648 -2.4892329 -0.51717234
3.1443723 -3.7050939 0.59667231
2.7571809 -3.250006 -0.52330696
2.5821376 -3.0447522 0.63230811
2.8074059 -3.3115509 -0.37982473
3.116749 -3.6764448 0.93687217
2.7969016 -3.3003279 -0.22671936
2.9601701 -3.49422 1.05727
3.1377469 -3.7051448 -0.084748886
2.9070943 -3.4339985 1.2055791
3.0783997 -3.6479569 0.083317788
3.0624228 -3.6303094 0.24890981
1.7275803 -2.0486631 -0.52090856
3.1384452 -3.7230653 0.42601727
2.0786688 -2.4667505 -0.51091496
3.1346081 -3.7211484 0.59740352
2.7490864 -3.2646451 -0.52403818
3.0779037 -3.6551281 0.75682994
2.7983955 -3.3243789 -0.38017335
3.1146297 -3.7013632 0.94030673
2.7835008 -3.3090284 -0.22661469
2.905955 -3.4558263 1.0424232
3.1428122 -3.7375021 -0.085237553
3.1125734 -3.7160015 0.25403873
1.7078149 -2.0396284 -0.51709238
3.1279878 -3.7370534 0.42636589
2.0780847 -2.4827187 -0.51279218
3.1222511 -3.7315227 0.59740352
2.7356982 -3.2706981 -0.5235507
3.1069406 -3.7158593 0.76715462
2.7944407 -3.3432992 -0.38121922
3.0998202 -3.7086586 0.93954349
2.7827572 -3.3305021 -0.22745207
2.8694944 -3.4355306 1.0334251
2.954163 -3.538156 -0.080455594
3.0823504 -3.6929939 1.2889188
3.114247 -3.743146 0.084993219
3.1034146 -3.7314505 0.25435275
1.6906439 -2.0335001 -0.51403943
3.1200179 -3.7540785 0.42706314
2.0790699 -2.5024739 -0.51529513
3.1148948 -3.7505768 0.59862221
2.7249601 -3.2822303 -0.52379444
3.0889037 -3.7206024 0.76590314
2.7802085 -3.3499669 -0.3808706
3.0949813 -3.7305718 0.94221482
2.7616068 -3.3299175 -0.22671936
2.9377267 -3.5435396 1.0626688
2.9328607 -3.5376702 -0.08021126
3.0768369 -3.7126555 1.2920247
3.0967218 -3.7472868 0.0848536
3.0941858 -3.7468807 0.25466676
1.6835353 -2.0393892 -0.51403943
3.0967498 -3.7526528 0.42566865
2.0783037 -2.5184961 -0.51717234
3.0847554 -3.7394472 0.59520987
2.6989056 -3.2728702 -0.52086957
3.0733845 -3.7283136 0.7652774
2.7659639 -3.356576 -0.38052197
3.0738536 -3.7302089 0.93954349
2.7657877 -3.3575559 -0.22797543
2.8764092 -3.4930882 1.0446727
3.0831674 -3.7455056 -0.084679076
3.0663136 -3.7263565 1.2930599
3.0798171 -3.7534358 0.084748886
3.0868102 -3.7632978 0.25508545
1.6742736 -2.0419245 -0.5132762
3.0956556 -3.7767696 0.42723745
2.0444605 -2.495176 -0.51091496
3.0679099 -3.7455851 0.59447866
2.6912374 -3.286879 -0.52160079
3.0610041 -3.7384848 0.7652774
2.7548179 -3.3657298 -0.38052197
3.0123283 -3.6816569 0.92466039
2.7451994 -3.3563679 -0.22724272
3.0770587 -3.7634497 -0.0848536
3.050272 -3.7320169 1.291507
3.0686166 -3.7651783 0.08478379
3.0648263 -3.7632093 0.25435275
1.6708543 -2.0523238 -0.51442105
3.0698771 -3.7720993 0.42549434
2.0187185 -2.4804923 -0.5065348
3.0467029 -3.744959 0.59277249
2.6878379 -3.3050259 -0.52306322
3.0504279 -3.7522124 0.76590314
2.7518484 -3.3861487 -0.38174215
3.028581 -3.7266681 0.93343761
2.7403509 -3.3732038 -0.22776608
2.7825418 -3.4263599 1.0190283
3.0689444 -3.7803778 -0.084993219
3.0408783 -3.7471418 1.2930599
3.0528794 -3.7753782 0.084748886
3.0459907 -3.7682041 0.25393406
1.6546835 -2.0477448 -0.51174973
3.056031 -3.7833256 0.42549434
2.0191072 -2.5005205 -0.50903775
3.0347946 -3.7597192 0.59325996
2.6701414 -3.3091426 -0.52208827
3.0366548 -3.7633676 0.76590314
2.750677 -3.410169 -0.38331096
2.9612597 -3.6725518 0.91702803
2.7323921 -3.3899211 -0.22818477
3.0581693 -3.7968058 -0.085097934
3.0307593 -3.7627755 1.2946129
3.0396823 -3.7860118 0.084748886
3.0309092 -3.7777851 0.25382939
1.6475254 -2.0535083 -0.51174973
4.411508 -5.5005573 0.61688835
2.005424 -2.5013884 -0.50778627
3.0278594 -3.7780348 0.59447866
2.6610564 -3.3215414 -0.52257574
3.0104928 -3.7590536 0.76277445
2.737511 -3.4181948 -0.38313665
2.8735765 -3.5893768 0.89374933
2.7280302 -3.4087945 -0.2288128
2.9399568 -3.6749207 1.0865136
3.0374038 -3.7980874 -0.084888505
3.0241855 -3.7829122 1.2977187
3.0502854 -3.8032957 0.42654021
3.0264481 -3.7965992 0.084748886
3.022099 -3.7925011 0.2541434
1.628115 -2.0438906 -0.50793355
3.0146509 -3.7858651 0.4234026
2.0016012 -2.5145554 -0.50903775
3.0270133 -3.8041143 0.59691604
2.6284382 -3.3043996 -0.51843219
3.0010412 -3.7741778 0.76371306
2.7280427 -3.4308486 -0.38348527
2.8549217 -3.5917012 0.89184124
2.7285397 -3.4339336 -0.22985952
2.9222628 -3.6790569 1.084714
3.022884 -3.8071007 -0.0848536
2.9960075 -3.7732518 1.2909894
3.0199953 -3.817124 0.25508545
1.6258421 -2.0557208 -0.50946002
3.0162453 -3.8151203 0.42549434
1.9732142 -2.4967302 -0.50403185
3.0051019 -3.8037539 0.59520987
2.641494 -3.3447115 -0.52330696
2.9915207 -3.7892817 0.76465167
2.7271613 -3.4544245 -0.38505407
2.9348016 -3.7187715 0.92084421
2.7239586 -3.4528453 -0.23048755
2.6765056 -3.3939127 0.99788288
3.0108143 -3.8191998 -0.084888505
2.9899942 -3.7927895 1.2940952
2.9899851 -3.8050564 0.084469647
2.9985837 -3.8187421 0.25445742
1.6259312 -2.0706482 -0.51174973
3.0127512 -3.8381636 0.42688883
1.9669258 -2.5067109 -0.50465758
2.9869054 -3.8079728 0.59423492
2.6016306 -3.3179825 -0.51770097
2.9862518 -3.8085081 0.76652888
2.7286066 -3.4811721 -0.3869715
2.7837649 -3.5528203 0.87733976
2.715584 -3.4670498 -0.23080157
2.6622396 -3.400166 0.99698307
3.0073246 -3.8422839 -0.085167743
2.9772633 -3.8052444 1.2946129
2.9791448 -3.8186235 0.084539457
2.9809908 -3.822365 0.25403873
1.6114509 -2.0670212 -0.50946002
3.0017846 -3.8517997 0.42723745
1.9557358 -2.5104449 -0.50403185
2.9784737 -3.8246406 0.59520987
2.6046658 -3.3458405 -0.52062584
2.9674202 -3.8131919 0.7652774
2.7360163 -3.5158335 -0.38976048
2.7580862 -3.5454703 0.87314196
2.7255343 -3.5048874 -0.23268566
2.6360025 -3.3909756 0.99158425
2.9877592 -3.844863 -0.084993219
2.9627772 -3.8140882 1.2940952
2.9657972 -3.8289994 0.084539457
2.9664073 -3.8311681 0.25393406
1.6054275 -2.0741861 -0.50984164
2.9858826 -3.8591029 0.42688883
1.9566291 -2.5297567 -0.5065348
2.9651051 -3.8350141 0.59520987
2.5152788 -3.2543904 -0.50502656
2.9583828 -3.8277001 0.76621601
2.7736702 -3.5900047 -0.39690725
2.7468935 -3.55663 0.87352358
2.7706492 -3.5886831 -0.23760524
2.6181966 -3.3924427 0.98933474
2.9743199 -3.8552688 -0.084993219
2.9494455 -3.824407 1.2940952
2.9560704 -3.8440842 0.084644171
2.9554504 -3.8446664 0.2541434
1.5921963 -2.0719939 -0.50793355
2.9699662 -3.866342 0.42654021
1.938162 -2.5240372 -0.50403185
2.9565352 -3.8516396 0.59618483
2.4531487 -3.1970056 -0.49478953
2.941396 -3.8333019 0.7652774
2.9636284 -3.8636718 -0.42601727
2.7249049 -3.553733 0.87047064
2.9695198 -3.874152 -0.25581815
2.6229321 -3.4232174 0.99563337
2.9535486 -3.8561025 -0.08478379
2.9266824 -3.8224082 1.2899541
2.9365667 -3.8464322 0.084469647
2.9541291 -3.8708365 0.25519012
1.590908 -2.0853435 -0.50984164
2.9564521 -3.8766855 0.42654021
1.9125733 -2.5087941 -0.49965168
2.9490885 -3.8698307 0.59740352
2.4491918 -3.2150237 -0.49625197
2.9291945 -3.8451173 0.76559027
2.9525378 -3.8771635 -0.42636589
2.7136726 -3.5647852 0.87085225
2.947512 -3.8733681 -0.25508545
2.6168661 -3.4401072 0.99788288
2.9485432 -3.8775311 -0.085028124
2.8987894 -3.8121015 1.2832248
2.9291618 -3.8646276 0.084644171
2.9357747 -3.8747571 0.25477143
1.5836191 -2.0908841 -0.50984164
2.9477125 -3.8933357 0.42723745
1.9038043 -2.5154549 -0.49965168
2.9223876 -3.8626876 0.5947224
2.4307698 -3.2140538 -0.49478953
2.8835824 -3.8127794 0.75714281
2.9413891 -3.8906248 -0.42671452
2.700029 -3.5726697 0.87047064
2.9351774 -3.8852269 -0.25519012
2.6001443 -3.4430004 0.99608327
2.9386046 -3.8925877 -0.085132839
2.8708335 -3.8041961 1.2770132
2.9132492 -3.871633 0.084574362
2.9155517 -3.8775095 0.25424808
1.5668719 -2.0838459 -0.50678869
2.9341043 -3.9036014 0.42723745
1.8950121 -2.5220851 -0.49965168
2.9148474 -3.8808013 0.59594109
2.4195358 -3.2225192 -0.49478953
2.9034654 -3.8670528 0.76590314
2.9349663 -3.9104294 -0.42776039
2.6934327 -3.5899247 0.87237873
2.9192008 -3.8922533 -0.25498078
2.6009688 -3.4692068 1.0010322
2.9226005 -3.8996213 -0.085063029
2.8512511 -3.8044199 1.2739073
2.9116844 -3.8977991 0.08492341
2.9055831 -3.8924646 0.25456209
1.5537164 -2.0814363 -0.5048806
2.9180772 -3.9106259 0.42688883
1.8980077 -2.5445185 -0.50278037
2.89535 -3.8829955 0.5947224
2.3845456 -3.1991133 -0.48991476
2.8585857 -3.8364842 0.75776855
2.9177272 -3.9158575 -0.42723745
2.690267 -3.6119007 0.87543167
2.9091748 -3.9072254 -0.25529479
2.5713903 -3.4548158 0.99428366
2.9030022 -3.9017776 -0.084888505
2.8753338 -3.8659987 1.2909894
2.8932962 -3.9015141 0.08478379
2.8950381 -3.9052874 0.25477143
1.539428 -2.0773829 -0.50259089
2.899665 -3.9143842 0.42619158
1.8820608 -2.5416033 -0.50090316
2.9018561 -3.9202024 0.59886595
2.3733641 -3.2074174 -0.48991476
2.7118978 -3.6649196 0.72210149
2.8981163 -3.9180094 -0.42636589
2.6939841 -3.6433696 0.88077432
2.8967055 -3.9189626 -0.25539947
2.5454183 -3.4449627 0.98888483
2.8924241 -3.9145994 -0.084958315
2.8659411 -3.8801742 1.2925423
2.8732276 -3.9014262 0.084574362
2.8802047 -3.9137606 0.25466676
1.5414742 -2.0953953 -0.50564384
2.8883443 -3.9276923 0.42654021
1.8502165 -2.5160024 -0.49464578
2.8688524 -3.9026134 0.5947224
2.3627148 -3.2152702 -0.48991476
2.6698521 -3.6345632 0.71427977
2.8856015 -3.9297078 -0.42654021
2.6993174 -3.6760199 0.88649859
2.8884212 -3.9349872 -0.25581815
2.521299 -3.4361021 0.98393591
2.8775593 -3.9230596 -0.08492341
2.8386715 -3.8714594 1.2863307
2.8648083 -3.9200034 0.084748886
2.8653474 -3.9221778 0.25456209
1.5329927 -2.0991778 -0.50526222
2.8734417 -3.9361414 0.42636589
1.831667 -2.5100015 -0.49214283
2.8568691 -3.9163095 0.59520987
2.3345399 -3.2014533 -0.48650242
2.6804266 -3.6757823 0.72053715
2.8800821 -3.9510267 -0.42776039
2.8211 -3.8715318 0.9311479
2.86222 -3.9294035 -0.25477143
2.53163 -3.4768273 0.99293395
2.8709102 -3.9427796 -0.085132839
2.8444672 -3.9078971 1.2951305
2.8588406 -3.9391923 0.084958315
2.8492939 -3.9289221 0.25435275
1.5210466 -2.0981581 -0.50373575
2.8725449 -3.9638939 0.42828332
1.82797 -2.5224599 -0.4933943
2.8415373 -3.9225465 0.5947224
2.3402106 -3.2316865 -0.48991476
2.8216341 -3.8979346 0.76214871
2.8709449 -3.9675125 -0.42845763
2.8335663 -3.915857 0.93954349
2.8515151 -3.9421099 -0.25498078
2.5383562 -3.5104699 1.0001324
2.8676728 -3.9673628 -0.085446982
2.8364658 -3.9256316 1.2977187
2.843215 -3.9480214 0.08492341
2.8367289 -3.940465 0.25445742
1.5102732 -2.0986742 -0.50259089
2.8377481 -3.944784 0.42514571
1.8140994 -2.5227277 -0.49214283
2.835252 -3.9442179 0.59642857
2.3289157 -3.2398357 -0.48991476
2.7999416 -3.896531 0.75995863
2.8489417 -3.9661825 -0.42723745
2.8272105 -3.9373793 0.94221482
2.8428705 -3.9606475 -0.25550414
2.5470579 -3.5498332 1.0086805
2.8363201 -3.9529777 -0.08492341
2.8182418 -3.9292296 1.2956481
2.8301072 -3.9574281 0.08492341
2.8229568 -3.950343 0.25445742
1.5029382 -2.1039332 -0.50259089
2.8355393 -3.9708799 0.42688883
1.8011319 -2.5222992 -0.49089135
2.8267702 -3.960061 0.59740352
2.3175923 -3.2479454 -0.48991476
2.688819 -3.7695852 0.73336477
2.8327664 -3.9728585 -0.42688883
2.8164177 -3.9499301 0.94297806
2.8320394 -3.9733058 -0.25571348
2.5567576 -3.5884148 1.0172287
2.830625 -3.9742558 -0.085167743
2.7977863 -3.9296008 1.2925423
2.8021644 -3.9503245 0.084539457
2.8119249 -3.9655509 0.25477143
1.4997581 -2.1158344 -0.50411737
2.8163587 -3.9747433 0.42619158
1.7788743 -2.5114647 -0.48744979
2.8046613 -3.9611652 0.59594109
2.3051041 -3.2568203 -0.48991476
2.6407486 -3.7310435 0.7239787
2.8227891 -3.9897203 -0.42758607
2.8000967 -3.9591123 0.94259644
2.8121502 -3.9776274 -0.25529479
2.5587061 -3.6204854 1.0235273
2.8125772 -3.9797047 -0.085063029
2.7867088 -3.9445623 1.2940952
2.7878977 -3.9579603 0.084504552
2.7957663 -3.9720756 0.25456209
1.4957525 -2.1258736 -0.50526222
2.8104905 -3.9959578 0.42741176
1.7875824 -2.5415862 -0.49214283
2.7858015 -3.9623245 0.5947224
2.2942914 -3.2644464 -0.48991476
2.706063 -3.851767 0.74556666
2.8157156 -4.0093322 -0.42863194
2.7835675 -3.9635561 0.94145158
2.7966493 -3.9836616 -0.25508545
2.6519118 -3.778894 1.0658181
2.8055588 -3.9993205 -0.085272458
2.7773594 -3.9605925 1.2961658
2.7843773 -3.9824174 0.084818695
2.7780024 -3.9747767 0.2541434
1.4752019 -2.1115094 -0.5006828
2.8120543 -4.0264907 0.42967781
1.7651305 -2.528374 -0.4883884
2.7730895 -3.9736525 0.59496613
2.2601671 -3.2398736 -0.48503999
2.558781 -3.6679265 0.70833526
2.8001253 -4.0153789 -0.42828332
2.7674697 -3.9700273 0.94068835
2.7941454 -4.009786 -0.25613217
2.7645696 -3.9688195 1.116657
2.7945671 -4.0118838 -0.085342267
2.7653143 -3.9713662 1.2966834
2.7722963 -3.9932715 0.0848536
2.7675263 -3.9893726 0.25445742
1.4689412 -2.1182593 -0.50106442
2.783226 -4.0149954 0.42741176
1.755611 -2.53259 -0.48807553
2.766681 -3.9926163 0.59642857
2.272018 -3.2799874 -0.48991476
2.6449216 -3.8197519 0.73586772
2.7815562 -4.0185757 -0.42758607
2.7665803 -3.9969397 0.94488615
2.7740145 -4.0091751 -0.25550414
2.6937493 -3.8946235 1.0932621
2.7782715 -4.0183246 -0.085272458
2.7525331 -3.9825839 1.2972011
2.7576416 -4.0034057 0.0848536
2.7592474 -4.0072338 0.25498078
1.4526331 -2.1104364 -0.49801148
2.7680647 -4.0230449 0.42723745
1.7429585 -2.5341249 -0.48713692
2.7531534 -4.0043657 0.59667231
2.2307474 -3.2457576 -0.48357755
2.5924118 -3.7719825 0.72491731
2.7708965 -4.0331872 -0.42810901
2.7463551 -3.9989611 0.94297806
2.7762575 -4.0440142 -0.25707422
2.6662248 -3.8851891 1.0878633
2.764228 -4.0279981 -0.085272458
2.7309648 -3.9810165 1.2935776
2.739835 -4.005926 0.084713981
2.7486235 -4.0217878 0.25529479
1.4474724 -2.1187363 -0.49877471
2.7517575 -4.0293921 0.42688883
1.7378876 -2.5447847 -0.48807553
2.7476939 -4.0249499 0.59837848
2.2490642 -3.2957691 -0.48991476
2.6148509 -3.8332281 0.73492912
2.7534337 -4.0378966 -0.42758607
2.7308668 -4.0048023 0.94221482
2.7459578 -4.0284435 -0.25550414
2.6884408 -3.9455429 1.1022602
2.7524023 -4.0409279 -0.085342267
2.7192263 -3.9937188 1.2946129
2.7255558 -4.0180716 0.084748886
2.7293809 -4.0252227 0.25487611
1.4474078 -2.1354031 -0.50144604
2.7414409 -4.0460484 0.42758607
1.7225647 -2.5432612 -0.48651119
2.7244285 -4.0239641 0.59667231
2.1918875 -3.2386217 -0.48016521
2.5697826 -3.7969804 0.72616879
2.7419649 -4.0529119 -0.42810901
2.7165692 -4.0168848 0.94259644
2.7394182 -4.0521946 -0.25634151
2.6514486 -3.9235441 1.0932621
2.7458209 -4.0647229 -0.085621506
2.7110587 -4.0132634 1.2977187
2.713747 -4.0308787 0.084818695
2.7190687 -4.041828 0.25529479
1.4289866 -2.124153 -0.49762986
2.7261891 -4.0539398 0.42741176
1.7213909 -2.5607344 -0.48870127
2.7203303 -4.0482785 0.59886595
2.1916381 -3.2627315 -0.4826026
2.5371286 -3.7784941 0.72085001
2.7322436 -4.0690749 -0.42880625
2.7036253 -4.027973 0.94297806
2.7174671 -4.0501226 -0.25560881
2.700695 -4.0266442 1.1193564
2.7249342 -4.0643172 -0.085412077
2.7049353 -4.0360111 1.3018598
2.7074369 -4.0519657 0.085063029
2.7023226 -4.04584 0.25498078
1.420473 -2.1274954 -0.49724824
2.7064914 -4.0551454 0.42654021
1.7091528 -2.5617978 -0.48776266
2.7039797 -4.0544466 0.59837848
2.1714267 -3.2571483 -0.48065269
2.5403555 -3.8119844 0.72554305
2.7191281 -4.0802453 -0.42898057
2.6993445 -4.0520911 0.94641262
2.7199181 -4.0845196 -0.25717889
2.6941818 -4.0474023 1.1225058
2.7062994 -4.067145 -0.085272458
2.682975 -4.0320922 1.2977187
2.6899609 -4.056392 0.084958315
2.6959082 -4.0669012 0.25571348
1.4217136 -2.1455333 -0.50030119
2.7011218 -4.0778564 0.4279347
1.6914755 -2.5545719 -0.48525971
