2.5983945 2.5605766 -0.84221675
8.1784694 8.0594372 0.60175882
3.3482719 3.2983884 -0.91359347
7.2925338 7.1813799 0.8954381
4.9115683 4.8350172 -1.0915997
7.3135988 7.197097 1.2598853
9.0921234 8.9472906 -1.5662648
7.3283413 7.2090874 1.6281699
10.581938 10.406105 -1.2984463
7.3432721 7.2187331 2.0015864
10.679413 10.498295 -0.78483
8.8775453 8.7239395 2.8735248
11.606234 11.401433 -0.28398556
8.8932215 8.7332444 3.339801
2.1031494 2.0602753 -0.78888045
2.620797 2.5655782 -0.84671577
8.1965871 8.0238892 0.60113079
3.3760294 3.3037445 -0.91817289
7.3177322 7.1585508 0.89561241
4.8908545 4.7827943 -1.0834651
7.331747 7.167254 1.2589103
9.1217437 8.9170909 -1.5662648
7.3493816 7.1819848 1.6275442
10.811642 10.561697 -1.3223269
7.3657653 7.1929706 2.0012047
8.9008483 8.6890074 2.8717252
15.502406 15.128164 -0.37808893
8.9345787 8.7158463 3.3444597
2.098894 2.0425112 -0.78473934
15.561984 15.138654 0.37896155
2.6348787 2.5623076 -0.84851538
8.2288777 8.0022339 0.60154948
3.3728893 3.2788464 -0.91435671
7.3371441 7.1300794 0.89508948
4.9435271 4.8023363 -1.0915997
7.3654429 7.1525823 1.2606165
9.1455673 8.8812613 -1.5652898
7.3618185 7.1465665 1.6250412
7.3952141 7.1739732 2.0027312
15.499367 15.030426 -1.1315034
8.9268152 8.6567301 2.8708254
15.528079 15.053012 -0.37749555
8.9453973 8.668693 3.3377304
2.1049767 2.0334625 -0.78422171
15.607296 15.071791 0.37871722
2.6512625 2.5594004 -0.85076489
8.2610259 7.9747941 0.60175882
3.3933606 3.2746419 -0.91664641
7.36036 7.1003729 0.89474086
4.9980653 4.8198369 -1.0997343
7.3787465 7.1131391 1.2584228
9.1866323 8.8559477 -1.5667523
7.3936522 7.125019 1.6262927
10.946813 10.545398 -1.3298223
7.4129735 7.1386493 2.0004415
15.566125 14.990086 -1.1325501
8.9612916 8.6266566 2.8717252
15.591792 15.004317 -0.37770498
8.9785018 8.6371876 3.338248
2.1214654 2.0358342 -0.78784517
15.644203 15.007493 0.37840308
2.6428569 2.5344087 -0.84536606
8.2989582 7.9584148 0.6025962
3.4183734 3.2769571 -0.92046259
7.3809882 7.073169 0.89439223
4.976933 4.7677073 -1.0915997
7.4051614 7.0913771 1.2589103
9.201612 8.8117054 -1.5643149
7.4115312 7.0949976 1.6250412
10.990359 10.517305 -1.3308682
7.433768 7.1113135 1.9996783
15.59843 14.921817 -1.131294
8.9870326 8.5941987 2.8708254
15.641462 14.95253 -0.37770498
8.9945244 8.5953542 3.3335893
11.027204 10.619132 -0.80231021
11.008958 10.531423 -0.79843735
2.1285588 2.0284165 -0.78784517
15.689254 14.945897 0.37822855
2.6460427 2.5197924 -0.84356645
8.3266877 7.9293975 0.6025962
3.4212595 3.2568829 -0.91817289
7.4085198 7.0501085 0.89474086
4.993545 4.7503055 -1.0915997
7.4198003 7.0559094 1.2572041
9.227999 8.7754282 -1.5635837
7.441979 7.0745273 1.6262927
10.397303 9.8804762 -1.2548684
7.455699 7.0826172 1.998915
9.014151 8.5600919 2.8699256
15.690661 14.895087 -0.37763517
9.0412888 8.5798627 3.339801
2.1296618 2.0160344 -0.78577462
15.745992 14.90066 0.37840308
2.6572154 2.5136824 -0.84446626
8.3384276 7.8880162 0.60154948
3.4263351 3.240124 -0.91664641
7.4304102 7.0241335 0.89456654
4.9920414 4.7174391 -1.0878453
7.4388286 7.0271761 1.2564729
9.2455044 8.7338734 -1.5616338
7.4596532 7.0443849 1.6250412
7.4805727 7.0592017 1.9992967
15.669133 14.786511 -1.1290959
9.0311474 8.5194551 2.8663263
15.737059 14.840229 -0.37756536
9.0654737 8.5458581 3.338248
11.202228 10.574918 -1.3477764
2.1405575 2.0129314 -0.78732754
15.792404 14.845623 0.37833327
2.6513354 2.4915119 -0.83996724
8.3689057 7.8644248 0.6018635
3.485712 3.2744465 -0.92962143
7.4536622 6.9994547 0.89456654
5.0047771 4.698155 -1.0872195
7.470776 7.0106198 1.2579354
9.271521 8.7004494 -1.5611463
7.4772094 7.0142031 1.6237897
10.695138 10.029361 -1.2827582
7.5082377 7.0383845 2.0004415
10.609376 9.945459 -0.76211619
9.0621932 8.4921249 2.8672261
15.765753 14.768822 -0.37707669
9.081072 8.5038646 3.3335893
2.1345154 1.9939532 -0.78266879
15.837163 14.789077 0.37822855
2.6937715 2.5146208 -0.85076489
8.403699 7.8448066 0.60249153
3.4621025 3.230723 -0.92046259
7.4637201 6.9624674 0.89299774
5.040555 4.7003936 -1.0915997
7.4910788 6.9831001 1.2574479
9.2959656 8.6655954 -1.5604151
7.5033186 6.9920627 1.6244155
10.866834 10.122854 -1.2993178
7.5243527 7.0067579 1.9985334
11.159724 10.392054 -0.79917005
9.0874515 8.4593713 2.8663263
9.1078075 8.4723881 3.3330717
2.1414626 1.9864902 -0.78266879
15.876959 14.722828 0.37794931
2.6853829 2.4893049 -0.84536606
8.4339608 7.81814 0.60270087
3.4647186 3.2106118 -0.91817289
7.4894398 6.9377258 0.89317205
5.0569317 4.6827701 -1.0915997
7.5110385 6.9528633 1.2567167
9.3450954 8.6506241 -1.5635837
7.5218803 6.960462 1.623164
10.613974 9.8183293 -1.2649785
7.5415579 6.9737858 1.9966253
18.230239 16.85186 -1.3010719
9.1212179 8.4315671 2.867676
18.283326 16.895016 -0.43453002
9.1387452 8.4418552 3.3335893
2.1650862 1.9950873 -0.78888045
15.91687 14.661968 0.37773988
2.6678193 2.4566251 -0.83726782
8.4598403 7.790129 0.60270087
3.4926797 3.2150603 -0.9227523
7.5138711 6.9142008 0.89334636
5.0113714 4.6098067 -1.0784592
7.5238252 6.9185119 1.2550105
9.3664244 8.6128688 -1.562365
7.5507379 6.9408276 1.6244155
10.669947 9.8046476 -1.2677674
7.5617506 6.9460825 1.9958621
11.198166 10.282822 -0.7967626
9.1448216 8.3973195 2.8663263
18.414382 16.903259 -0.43631016
9.1666891 8.4115036 3.3335893
16.55031 15.293593 -0.39334234
2.1709586 1.9858345 -0.78836281
15.977881 14.610278 0.37791441
2.691189 2.4599785 -0.84176685
8.4853874 7.7563748 0.60249153
3.5102373 3.2075348 -0.92427877
7.5406335 6.8879584 0.89352067
5.0895001 4.6473522 -1.0915997
7.5462 6.8882127 1.254523
9.3891325 8.5704515 -1.5609026
7.5732082 6.9104432 1.6237897
10.582164 9.6526874 -1.2531253
7.5929613 6.9236119 1.9973886
11.220709 10.231559 -0.79582055
9.1712173 8.3598073 2.8649766
20.486424 18.667372 -0.48378071
9.2017418 8.3817522 3.3351422
2.1875403 1.9877186 -0.79198628
16.024762 14.555869 0.3778795
2.7253008 2.474621 -0.84986508
8.5095831 7.7268509 0.60238686
3.4685214 3.148374 -0.91054053
7.5560558 6.8562207 0.89264912
5.1048833 4.6304493 -1.0915997
7.577824 6.8711512 1.2559855
9.4116192 8.5339352 -1.5599276
7.590228 6.8799849 1.6225383
11.181067 10.131263 -1.3200609
7.6158791 6.8983946 1.9973886
11.202766 10.147365 -0.79215703
9.1959999 8.3267325 2.8640768
23.132308 20.938341 -0.5446198
9.2280536 8.3498959 3.3346246
21.276149 19.258228 -0.50091897
2.186548 1.9715424 -0.78888045
16.079049 14.492892 0.3778446
2.7203051 2.4510937 -0.84536606
8.5510596 7.7048151 0.60322423
3.5389348 3.1875898 -0.92580525
7.5778841 6.8231575 0.89212618
7.6041514 6.8420039 1.2559855
9.4531718 8.505701 -1.56139
7.6107145 6.8455058 1.6212868
10.591703 9.5234311 -1.2461528
7.6408507 6.8677886 1.9970069
11.283523 10.138354 -0.79498318
9.2264548 8.2900586 2.8636269
21.351426 19.177728 -0.50095387
9.2341727 8.2911694 3.3253071
2.1858787 1.9578363 -0.78629226
16.115102 14.428821 0.37756536
2.7429389 2.4550559 -0.84986508
8.5676334 7.6684243 0.6025962
3.5846003 3.2072548 -0.93496408
7.5989838 6.7966626 0.89195187
5.090764 4.5516684 -1.0815879
7.6208782 6.8114585 1.2550105
9.4857659 8.478275 -1.5621212
7.6392654 6.8254947 1.6225383
11.296371 10.089484 -1.3251159
7.6533318 6.83326 1.9943356
11.378173 10.155408 -0.79927472
9.2582566 8.2633099 2.8649766
9.2760337 8.2733611 3.3304835
2.1865859 1.9454404 -0.78422171
16.161367 14.373973 0.37753046
2.7277633 2.4252291 -0.84266665
8.5974936 7.6439521 0.60291022
3.5746721 3.177091 -0.92962143
7.6244595 6.7740727 0.89230049
5.1117377 4.5400088 -1.0828394
7.6315484 6.7756057 1.2530606
9.5078909 8.4415006 -1.5611463
7.6618575 6.8001245 1.6225383
11.133039 9.877427 -1.3021068
7.680356 6.8117511 1.9954805
11.238184 9.9672086 -0.78723745
9.2826914 8.2299774 2.8640768
18.932556 16.779587 -0.44158079
9.2947423 8.2348686 3.3273776
2.1988154 1.943296 -0.78629226
16.205947 14.317653 0.37746065
2.7503971 2.4290702 -0.84716567
8.6153095 7.6087892 0.60238686
7.6498688 6.7513886 0.89264912
5.1445404 4.538715 -1.0865938
7.6569527 6.7528874 1.2535481
6.617763 5.8363959 -1.0834185
7.6873289 6.7772921 1.623164
7.7058486 6.7888403 1.9962437
11.257687 9.9180041 -0.78629541
9.2996949 8.1901339 2.8609275
9.3321505 8.2129349 3.3310011
2.1997774 1.9305118 -0.78422171
16.264845 14.268909 0.37767008
2.7354171 2.3988964 -0.83996724
8.6538296 7.5892048 0.60322423
3.5962149 3.1526856 -0.92962143
7.6643985 6.7167655 0.89160325
5.1841257 4.5415564 -1.0915997
7.6834648 6.7287341 1.2540355
9.5666231 8.3778952 -1.56139
7.6931036 6.7348031 1.6194096
7.7250662 6.7580225 1.9950989
18.988759 16.611697 -1.3222156
9.331161 8.1601877 2.8618273
21.593671 18.877217 -0.50063973
9.3505795 8.171411 3.3273776
2.2076233 1.9244759 -0.78473934
16.309058 14.212267 0.37760027
2.7521735 2.3974925 -0.84266665
8.6759367 7.5578422 0.60301489
3.5859219 3.1226925 -0.92427877
7.6821217 6.687388 0.89108031
5.1514725 4.4828445 -1.0815879
7.7087313 6.7058236 1.254523
9.5988457 8.3500336 -1.5621212
7.718376 6.7118473 1.6200353
7.7444703 6.7297926 1.9943356
11.320412 9.8372161 -0.78598139
9.3611122 8.1317555 2.8627271
23.85755 20.717131 -0.55153095
9.3761666 8.139092 3.32686
6.673529 5.8401759 -0.77586042
21.654641 18.804195 -0.50060483
2.2190446 1.9201639 -0.78629226
16.345915 14.139314 0.37725122
2.775683 2.4001355 -0.84716567
8.712644 7.5338307 0.60364292
3.618137 3.1275027 -0.92962143
7.7065806 6.6591867 0.89108031
5.1858072 4.4794285 -1.0853423
7.7302526 6.6749299 1.2540355
9.6263807 8.3122013 -1.5616338
7.7444196 6.6848037 1.6203482
11.066034 9.5485745 -1.2787491
7.7646244 6.6975156 1.9931908
10.760518 9.2816768 -0.74474066
9.3908537 8.0973907 2.8627271
23.80306 20.517269 -0.54852913
9.4073984 8.105933 3.3273776
2.2385853 1.924128 -0.790951
16.395746 14.087637 0.37732103
2.7806703 2.3883783 -0.84626587
8.7284886 7.497089 0.60301489
3.613593 3.1026979 -0.92580525
7.7361801 6.6400824 0.89195187
5.2306164 4.4879333 -1.0915997
7.7402908 6.6389197 1.2520856
9.6629327 8.2879876 -1.5630962
7.7725431 6.6642287 1.6215997
11.009897 9.4366231 -1.268639
7.7838097 6.6691756 1.9924275
19.13909 16.398391 -1.3208549
9.4146938 8.0636697 2.8618273
23.83603 20.40831 -0.54772632
9.4298238 8.0709239 3.3258247
21.720387 18.72209 -0.50053502
21.780834 18.648659 -0.50050011
2.2390768 1.9116765 -0.78888045
16.442373 14.03319 0.37732103
2.7737502 2.3664958 -0.84176685
8.7517824 7.4668068 0.60291022
3.5850243 3.057574 -0.91588318
7.7611892 6.6169771 0.89230049
5.2454702 4.4705633 -1.0915997
7.7592416 6.6106408 1.2515982
9.6782751 8.2455996 -1.5611463
7.7855765 6.6307325 1.6197225
11.197386 9.533093 -1.2865931
7.8148532 6.6509614 1.9947172
11.101828 9.445056 -0.76389562
9.4324766 8.0248285 2.8591279
21.09614 17.941528 -0.48339675
9.4624235 8.0446143 3.3278953
2.2409837 1.9004924 -0.78732754
16.496445 13.985053 0.37749555
2.7845559 2.3598045 -0.84266665
8.7780188 7.4390351 0.60301489
3.6280993 3.0735875 -0.92427877
7.7830892 6.5912037 0.89230049
5.1848827 4.3893272 -1.0759563
7.7841513 6.5874386 1.2520856
9.7131418 8.2198717 -1.562365
7.8060139 6.6036023 1.6194096
11.006823 9.3080748 -1.2611436
7.8323677 6.6212075 1.9935724
21.187649 17.904952 -1.4537882
9.4605245 7.994763 2.8595778
21.511447 18.172147 -0.49152957
9.4875724 8.0119451 3.3273776
2.2301991 1.8773369 -0.78111588
16.539941 13.918059 0.37732103
2.8051166 2.3596184 -0.84626587
8.8281516 7.4260973 0.60458497
7.7934687 6.5510948 0.89073169
5.2281577 4.3931687 -1.0815879
7.8173631 6.5665247 1.2535481
9.7461524 8.183792 -1.5626087
7.8256265 6.5711367 1.618471
11.091224 9.3099416 -1.2668959
7.8565831 6.592456 1.9935724
9.4941388 7.9608826 2.8604776
9.5065102 7.9684306 3.3237542
2.2411855 1.8732574 -0.78266879
16.576798 13.85544 0.3771116
2.8278804 2.3627983 -0.85076489
8.8432894 7.3862737 0.60385226
3.6500004 3.0475469 -0.92427877
7.8147592 6.5225739 0.89055738
5.2184325 4.3555548 -1.076582
7.8329986 6.5354783 1.2525731
9.7762861 8.1539705 -1.5630962
7.8561024 6.550105 1.6200353
10.982849 9.1538127 -1.2508592
7.8708607 6.5600815 1.9916643
19.369504 16.138062 -1.3212736
9.5279729 7.9355908 2.8627271
23.921513 19.916511 -0.54332832
9.5402067 7.9401414 3.3258247
11.447081 9.5373482 -0.78085247
22.042032 18.351697 -0.50063973
2.2488715 1.8670491 -0.78318643
16.631217 13.8026 0.37725122
2.8241125 2.3429586 -0.84716567
8.8754203 7.3632839 0.60437562
3.6056837 2.9903085 -0.91054053
7.8424812 6.5017098 0.89125463
5.2305625 4.3347916 -1.0759563
7.8496494 6.5030306 1.2515982
9.8016315 8.117263 -1.5626087
7.8747374 6.5214974 1.6194096
11.045373 9.1440231 -1.2545198
7.8921992 6.5313154 1.9912827
21.278572 17.603165 -1.4472985
9.5496082 7.897316 2.8609275
9.5694626 7.9109231 3.32686
2.250903 1.8555012 -0.78163352
16.676897 13.747373 0.37725122
2.8138196 2.3187091 -0.84176685
8.8871946 7.3208291 0.60343358
3.6160999 2.9777041 -0.91054053
7.8728199 6.480626 0.89212618
5.2540592 4.3249551 -1.0778335
7.8665725 6.4731804 1.2508669
9.819297 8.0771485 -1.5611463
7.8974537 6.4939697 1.6194096
19.405536 15.951234 -2.1977192
7.919881 6.5100947 1.9928091
19.443411 15.976682 -1.3188661
9.5606856 7.8532357 2.8564285
19.511348 16.021099 -0.44067326
9.6029915 7.882374 3.3289306
19.399557 16.048709 -1.3194941
11.421992 9.3888094 -1.2935655
2.2678308 1.856198 -0.78525698
16.730267 13.688689 0.37732103
2.8222992 2.3083804 -0.84176685
8.929701 7.3036718 0.60458497
7.8876802 6.446801 0.89125463
5.2698757 4.305669 -1.0778335
7.8979323 6.4505831 1.2520856
9.8458942 8.0415679 -1.5609026
7.912423 6.4601164 1.6178452
11.076526 9.0402341 -1.2508592
7.9436884 6.4810232 1.9928091
9.5999776 7.8267611 2.8595778
9.6244576 7.8439234 3.32686
2.2757955 1.8494888 -0.78577462
16.774016 13.631873 0.37728612
2.860189 2.3235838 -0.85076489
8.9473891 7.2661614 0.60406161
7.9101356 6.4192286 0.89125463
5.2902602 4.2931488 -1.0790849
7.9254463 6.4293596 1.2530606
9.8785301 8.0109013 -1.5616338
7.9364593 6.4337014 1.6181581
11.143617 9.0303657 -1.2548684
7.9636113 6.4534093 1.9924275
21.432325 17.361749 -1.4455191
9.6273938 7.7961097 2.8600277
24.364812 19.723196 -0.54716785
9.6427688 7.8029886 3.3237542
19.51422 15.915409 -1.3197035
2.2668837 1.8297979 -0.78059824
16.810604 13.564448 0.37704179
2.8531144 2.301351 -0.84626587
8.9916448 7.252752 0.60542234
3.6465704 2.9403103 -0.91054053
7.9282766 6.3904616 0.890906
5.3082902 4.277135 -1.0797107
7.9447487 6.399165 1.2525731
9.9033408 7.9738801 -1.5611463
7.9623664 6.4110644 1.6190967
11.260419 9.0633206 -1.2646298
7.9784414 6.4194182 1.9905194
9.6621422 7.7685618 2.8622772
24.469043 19.673616 -0.54804047
9.6761203 7.7770204 3.3263424
2.2883318 1.8339553 -0.78577462
2.8363965 2.2723821 -0.83906743
9.0153479 7.2200726 0.60531767
3.6966596 2.9594648 -0.92046259
7.9520908 6.3639928 0.89108031
5.3131908 4.2521028 -1.0778335
7.9597251 6.3678237 1.2515982
9.931279 7.9422354 -1.56139
7.9908685 6.3881654 1.6203482
11.291987 9.0239592 -1.2646298
8.0058198 6.397828 1.9920459
11.483453 9.173685 -0.7702806
9.6771912 7.727966 2.8591279
9.7032083 7.743197 3.3263424
11.47787 9.2317432 -0.77195535
22.324632 17.949465 -0.50001144
2.2947195 1.8259563 -0.78577462
2.8477568 2.2643967 -0.83996724
9.0389325 7.1873161 0.605213
3.6977463 2.9392133 -0.91817289
7.9789366 6.3399144 0.89160325
5.3287398 4.2326005 -1.0778335
7.990784 6.3447791 1.2528169
9.9556575 7.9020797 -1.5606588
8.0084769 6.3565489 1.6194096
11.594993 9.1999669 -1.29496
8.0307534 6.3696622 1.9924275
11.493524 9.1129214 -0.76871053
9.7023962 7.6900245 2.8582281
12.076444 9.5716716 -0.26897649
9.7332063 7.7116787 3.3273776
2.3037933 1.8207324 -0.7868099
12.11657 9.5725244 0.26953497
2.8613675 2.2597719 -0.84176685
9.0608306 7.1532454 0.60500365
3.6771607 2.901963 -0.91054053
7.9978899 6.3095561 0.89125463
5.3101781 4.1892133 -1.0712632
8.0071039 6.3145581 1.2520856
9.9553052 7.8481298 -1.5565153
8.0213076 6.3212193 1.6175324
11.639556 9.1693002 -1.2963545
8.053374 6.3442112 1.9928091
11.509558 9.0636364 -0.76776848
9.7278439 7.6578079 2.8582281
9.7585474 7.6764621 3.32686
8.2408118 6.4848794 -0.18304084
2.2873374 1.7947913 -0.77904533
7.9567594 6.2411392 0.17651364
2.8815064 2.2593896 -0.84536606
7.9811592 6.2580282 0.53152397
3.6867637 2.8897531 -0.91054053
8.0109276 6.2768553 0.89038307
5.3325445 4.1767421 -1.0728276
8.038475 6.2939123 1.2535481
8.0484476 6.299455 1.6187838
7.905466 6.1853198 -0.87818126
8.0785632 6.31848 1.9935724
9.7575862 7.6262048 2.8591279
7.9440067 6.2087713 -0.17599007
9.7778606 7.6393019 3.3247895
2.2996844 1.791545 -0.78111588
7.9711021 6.2098035 0.17637402
2.8597702 2.2270721 -0.83681792
8.0061072 6.2325844 0.53173332
3.7526062 2.9202725 -0.92427877
8.0375069 6.2525237 0.890906
5.3744306 4.180868 -1.0784592
8.0561681 6.264784 1.2530606
7.9177757 6.1549474 -1.2313678
8.0735074 6.2737465 1.6194096
7.9222883 6.1540201 -0.87765833
8.0917195 6.2856339 1.9916643
7.9411506 6.1664502 -0.52691841
9.7905189 7.5997802 2.8613774
7.9798496 6.1920369 -0.17630421
9.8075201 7.6074924 3.3258247
2.3242614 1.7976897 -0.78732754
7.9874806 6.1756537 0.1762344
2.8756231 2.2225341 -0.83906743
8.021493 6.1997144 0.53131463
8.0608602 6.2256474 0.89108031
5.3772094 4.1514842 -1.0759563
8.0727896 6.2303632 1.2520856
7.9313547 6.1212075 -1.2301492
8.0984857 6.2479397 1.6200353
7.9594986 6.1384962 -0.87940144
8.1115934 6.2535367 1.9909011
7.9626271 6.1386929 -0.52691841
9.8092697 7.5596108 2.8591279
8.0045835 6.1665851 -0.17637402
9.8416683 7.5791049 3.3284129
2.3148897 1.7782039 -0.78215115
8.0206042 6.1588754 0.17651364
2.8829775 2.212986 -0.83906743
8.0356707 6.1682155 0.53089594
8.0862035 6.2025202 0.89160325
5.4034874 4.1432458 -1.0784592
8.0902548 6.2011434 1.2515982
7.9516097 6.0948726 -1.2301492
8.1160241 6.2186469 1.6194096
7.9861377 6.1169138 -0.88009869
8.1416391 6.2337644 1.9931908
7.9797684 6.1098257 -0.52670906
9.8311893 7.5246717 2.8582281
8.0218123 6.1375767 -0.17630421
9.8713509 7.549948 3.3299658
2.3177019 1.7681741 -0.78111588
8.0409837 6.1322443 0.17651364
2.8995987 2.2105022 -0.84176685
8.060846 6.145167 0.53120996
8.1051424 6.1744639 0.89142894
5.4171972 4.1253044 -1.0784592
8.1170921 6.1790906 1.2525731
7.9717774 6.0684706 -1.2301492
8.1303133 6.1869141 1.6181581
8.0000353 6.0855721 -0.87940144
8.163829 6.2079198 1.9935724
8.0121773 6.0903945 -0.52744177
9.8529852 7.4896704 2.8573283
8.0357524 6.1061023 -0.17616459
9.8871029 7.5101607 3.32686
2.3112343 1.7511454 -0.77697477
8.066057 6.1091678 0.17661835
2.906913 2.2008746 -0.84176685
8.095511 6.1292528 0.532152
3.7351557 2.8269262 -0.91054053
8.1255731 6.1475523 0.89142894
5.4403006 4.114467 -1.0803364
8.150206 6.1617165 1.254523
7.9966078 6.0455933 -1.2308804
8.1476332 6.157537 1.6175324
8.0169923 6.0566076 -0.87905282
8.185937 6.1819966 1.993954
8.0323297 6.0637916 -0.52744177
9.8870995 7.4640003 2.8600277
8.0623415 6.0842395 -0.17630421
9.9104109 7.4761692 3.3263424
2.3207251 1.7449846 -0.77801005
8.078803 6.0723542 0.17640892
2.9305398 2.2019116 -0.84626587
8.1147279 6.0971406 0.53194266
8.1416773 6.1129442 0.89073169
5.4427052 4.0850134 -1.0778335
8.1695593 6.1294205 1.2540355
8.0139487 6.0126696 -1.2301492
8.1827894 6.1371149 1.6200353
8.0359488 6.0247929 -0.8787042
8.2069692 6.1507747 1.9935724
8.0534473 6.0357166 -0.52744177
9.91439 7.4277122 2.8600277
8.0877884 6.0570461 -0.17637402
9.9392924 7.4409533 3.32686
2.341978 1.7488379 -0.78318643
8.1021002 6.0479229 0.17647873
2.8191255 2.1036085 -0.81207331
8.1381036 6.0725866 0.532152
8.1666955 6.0894848 0.89125463
8.1723304 6.0892489 1.2513544
8.0370269 5.9884335 -1.2306366
8.2030958 6.109946 1.6200353
8.0622759 6.002871 -0.87940144
8.2194462 6.1176647 1.9916643
8.0670095 6.0042073 -0.52702308
9.9420936 7.3971205 2.8609275
8.1142481 6.0349662 -0.17651364
9.9701141 7.412563 3.3289306
2.3480683 1.7406522 -0.78318643
8.1263753 6.0219856 0.17654854
2.7904355 2.0670756 -0.80172556
8.1464122 6.0346315 0.53131463
2.7705602 2.0516037 -0.67012119
8.1991118 6.0692384 0.89247481
8.2015158 6.0665875 1.2525731
8.2339035 6.0883213 1.6219125
8.0992029 5.9865347 -0.88114456
8.2502247 6.0959363 1.993954
9.9647188 7.3600555 2.8600277
8.1320472 6.0042299 -0.17644383
10.002145 7.3823045 3.3310011
2.3538276 1.7328562 -0.78318643
8.151132 5.9985602 0.17665326
2.8051236 2.0635847 -0.80397507
8.1695966 6.0099509 0.53152397
2.8026545 2.0610145 -0.67622708
8.2111665 6.0361154 0.89160325
2.7617865 2.0294761 -0.54282759
8.2247879 6.0417073 1.2530606
8.2397179 6.0504607 1.6190967
8.2735599 6.0708669 1.9947172
9.9922135 7.329276 2.8609275
8.1454626 5.9725003 -0.17630421
10.01878 7.3433853 3.3284129
2.339884 1.7094025 -0.77645714
8.1779078 5.9721826 0.17675797
2.938585 2.1452108 -0.83996724
8.2028614 5.9882108 0.53225667
8.2316251 6.0048052 0.89142894
2.8553949 2.0821898 -0.55972252
8.251689 6.0150294 1.2537918
2.7847846 2.0299555 -0.42313036
8.2666281 6.02371 1.6200353
8.292581 6.0381908 1.993954
2.8868803 2.1020637 -0.18715338
10.020585 7.2937503 2.8613774
8.1705321 5.9449586 -0.17637402
10.045628 7.3066153 3.3284129
2.3549219 1.7084403 -0.77956296
8.1895733 5.9391609 0.17658345
2.9362161 2.1285915 -0.83726782
8.2242909 5.9621485 0.53236135
3.7930595 2.7487451 -0.91054053
8.2482655 5.9751375 0.89108031
5.5021771 3.9843757 -1.0759563
8.2699822 5.9864687 1.2535481
8.2897586 5.9985798 1.6206611
2.8702718 2.0762037 -0.30992582
8.3061951 6.0060569 1.9924275
8.1635929 5.902944 -0.52796513
10.051034 7.2650471 2.863177
8.1966848 5.9225161 -0.17651364
10.076067 7.2777872 3.3304835
2.3640064 1.7024676 -0.78059824
8.208632 5.9093695 0.17654854
2.9404648 2.1160527 -0.83636802
8.2418103 5.9310708 0.532152
3.8281309 2.7538317 -0.91664641
8.2755427 5.9509621 0.89177756
5.4935961 3.9490033 -1.0715761
8.2859923 5.9540895 1.2528169
8.3202733 5.9765212 1.6225383
8.1809733 5.8742965 -0.88114456
8.3334892 5.9816055 1.993954
10.07475 7.2287821 2.8627271
8.2205582 5.8961992 -0.17658345
10.101409 7.2425709 3.3304835
2.3743532 1.6979902 -0.78215115
8.2363169 5.8879308 0.17672307
2.9538078 2.1108222 -0.83816763
8.2549332 5.8990624 0.53173332
3.8212667 2.7297101 -0.91283023
8.3033385 5.9292758 0.89264912
8.308923 5.9288855 1.2533043
8.3368301 5.9466031 1.6219125
8.2117639 5.8552321 -0.88236474
8.3564766 5.9562168 1.9947172
8.1932177 5.8376952 -0.52723242
10.093904 7.1919408 2.8613774
8.2384367 5.8677463 -0.17654854
10.134813 7.2157563 3.3335893
2.3758342 1.6859224 -0.78059824
8.267628 5.8646454 0.1769325
2.9837797 2.1157627 -0.84446626
8.2797574 5.8710775 0.53194266
8.3217632 5.896499 0.89230049
8.3386982 5.9041274 1.254523
8.3521199 5.9114423 1.6206611
8.3878683 5.9323506 1.9970069
10.12497 7.1582715 2.8627271
10.16277 7.1796766 3.3341069
2.3640408 1.6657943 -0.77490422
8.2821259 5.8337421 0.17682778
2.9716588 2.0923933 -0.83906743
8.3089794 5.8504877 0.53257069
8.3396415 5.8677241 0.89212618
2.5932904 1.8239477 -0.50215463
8.3647267 5.8810097 1.255498
2.6177324 1.8404558 -0.39290676
8.3716771 5.8837132 1.6206611
3.3811857 2.3754556 -0.36152202
8.4026747 5.9011179 1.9958621
3.3620795 2.3611562 -0.21531012
10.153437 7.1280156 2.8640768
3.3588214 2.3571178 -0.071624676
10.178615 7.1403889 3.3315187
2.3827964 1.6659741 -0.77904533
8.2968958 5.7987652 0.17668816
8.3336412 5.8222822 0.53278003
2.5560105 1.785088 -0.60600937
8.3643591 5.8393994 0.89247481
2.5950984 1.8110392 -0.50121603
8.3813413 5.8469047 1.2547668
8.2348144 5.7446861 -1.2328303
8.3996669 5.8575096 1.6219125
3.3571803 2.3402596 -0.35803579
8.4194147 5.8669136 1.9947172
3.3399827 2.3265394 -0.21332136
10.18589 7.0952089 2.8658764
3.3477455 2.3310791 -0.071205818
10.207889 7.1052417 3.332554
2.385134 1.6558599 -0.77801005
2.5442692 1.7650224 -0.71489445
8.3496207 5.792338 0.53257069
2.5861155 1.7933836 -0.61173364
8.3918644 5.8173055 0.89334636
8.3990524 5.8179486 1.254523
8.420669 5.8307477 1.6222254
3.3485401 2.3177745 -0.35629268
8.4436672 5.8423128 1.9958621
3.32304 2.2984087 -0.21175128
10.20776 7.0602837 2.8654265
3.3340744 2.3051806 -0.070752056
10.237752 7.0757456 3.3346246
2.6537658 1.8512927 -0.39729406
2.400444 1.6541011 -0.78111588
3.4072589 2.3470014 0.072218058
2.5744905 1.7727082 -0.72164298
8.3664988 5.7608917 0.53236135
8.4154023 5.7902357 0.89369499
5.5158313 3.7937614 -1.0603128
8.4193097 5.788595 1.254523
8.2851765 5.6963734 -1.2345364
8.4474827 5.805794 1.6234769
3.3336197 2.2902768 -0.35385232
8.472101 5.8183605 1.9977702
3.3075941 2.2715469 -0.21028587
10.230736 7.0235061 2.8649766
3.31572 2.2754247 -0.070193579
10.26876 7.0443374 3.3366951
2.4091048 1.6483136 -0.78215115
3.3952163 2.3221428 0.0717992
2.9728776 2.0325247 -0.8314191
8.3888541 5.7353702 0.53257069
3.8674077 2.6431151 -0.91054053
8.4411376 5.766793 0.89439223
5.561007 3.79773 -1.0665702
8.445017 5.7651207 1.255498
8.2941839 5.6621521 -1.233074
8.4552673 5.769955 1.6212868
3.3148617 2.2612453 -0.35106333
8.4945929 5.7924461 1.9985334
3.3019076 2.2515643 -0.2094485
10.253971 6.9895411 2.8649766
3.2935018 2.2441486 -0.069565292
10.292064 7.0102462 3.3366951
2.3825978 1.618604 -0.77179839
3.3764293 2.2928964 0.071240723
3.0086235 2.0423563 -0.83951733
8.4177421 5.7142507 0.53319872
3.8761514 2.6302758 -0.91054053
8.4470238 5.7298219 0.89299774
5.540871 3.7570958 -1.0603128
8.4805204 5.7482221 1.2579354
8.3342762 5.6490956 -1.2362426
8.4907081 5.752965 1.6244155
3.3041962 2.2379501 -0.34914591
8.5137546 5.7642452 1.9985334
3.2961251 2.2316444 -0.20861112
10.281934 6.958776 2.8663263
3.2876755 2.2242503 -0.069286054
10.315254 6.9760779 3.3366951
2.3959601 1.6160955 -0.77438658
3.3508539 2.2593287 0.070542627
3.0056839 2.0258332 -0.83681792
8.4399573 5.6885376 0.53340807
8.4725883 5.706231 0.89369499
5.5532995 3.738701 -1.0603128
8.4863605 5.7112015 1.2559855
8.3546103 5.6225354 -1.2364864
8.5064609 5.7225719 1.6237897
3.2917595 2.2136388 -0.34705417
8.529564 5.7337903 1.9977702
3.2836167 2.2073308 -0.20735506
10.317894 6.9333369 2.8699256
3.2834135 2.2055306 -0.06904172
10.333519 6.9386022 3.3351422
2.4053592 1.609032 -0.77542186
3.3395568 2.2331071 0.070123769
2.9939988 2.001282 -0.8314191
8.4550956 5.651649 0.53298938
8.504377 5.6802963 0.89474086
5.5676141 3.7173503 -1.0603128
8.5148318 5.6829821 1.2569604
8.3711843 5.5871087 -1.2357551
8.5382306 5.6964452 1.625667
3.2836592 2.1899285 -0.34531105
8.5515173 5.700997 1.9977702
3.2671407 2.1780882 -0.20578498
10.339575 6.8904259 2.8685758
3.2668944 2.1762772 -0.068518148
10.374557 6.9085101 3.339801
2.4155095 1.6042531 -0.77697477
3.325286 2.207642 0.069670006
3.0168559 2.0021182 -0.83591812
8.4754548 5.6246843 0.53309405
3.0527655 2.0251819 -0.71209917
8.5264877 5.6542658 0.89508948
8.5336304 5.6547147 1.2569604
8.3830467 5.554932 -1.2347802
8.5537801 5.6659184 1.6250412
3.2792746 2.1713277 -0.34409087
8.5818354 5.6801929 2.0004415
3.2560252 2.155116 -0.20463359
10.359117 6.8539502 2.867676
3.2640858 2.1588131 -0.068308719
10.399021 6.8751342 3.3403186
2.4084678 1.5868859 -0.77283367
3.3166549 2.1844402 0.069320958
3.0404503 2.0017635 -0.84041714
8.5010179 5.5968772 0.53340807
3.0224485 1.9891554 -0.70332196
8.5471544 5.6229767 0.89508948
8.5675689 5.6321229 1.2589103
2.6407686 1.7359806 -0.38803199
8.5777909 5.6366988 1.625667
3.2705583 2.1483553 -0.34234776
8.6058789 5.6508559 2.0012047
3.2375609 2.1250626 -0.20295884
10.390685 6.8202134 2.8694756
3.2418815 2.1270891 -0.067680432
10.428996 6.8401523 3.3418715
2.4331171 1.5915808 -0.77904533
3.2987757 2.1570141 0.068797386
3.0274973 1.9788755 -0.83501831
8.5312337 5.5763053 0.53414077
3.9214657 2.562227 -0.91054053
8.5624176 5.5924234 0.89474086
3.1245127 2.0399539 -0.59100941
8.579549 5.5993411 1.2579354
2.6332117 1.7185345 -0.38608208
8.5997446 5.6103815 1.6262927
3.2426182 2.1146428 -0.33868722
8.6229258 5.6212146 2.0008231
3.2378967 2.1099531 -0.20254015
10.418143 6.7889109 2.8708254
3.2355128 2.1075953 -0.067401194
10.440289 6.7981519 3.338248
2.4321765 1.5788704 -0.77697477
3.2794455 2.1280697 0.068238909
3.0540053 1.9810216 -0.84041714
8.5523223 5.5475787 0.53424544
3.9303856 2.5485229 -0.91054053
8.5785428 5.5603335 0.89439223
8.6123714 5.5779918 1.2598853
2.626162 1.700241 -0.38413217
8.6192761 5.5803286 1.6262927
3.229908 2.0903209 -0.33659548
8.6391982 5.588948 2.0000599
3.2217623 2.083454 -0.20107474
10.452775 6.7570286 2.8735248
3.2075834 2.0734908 -0.066668193
10.472068 6.7669095 3.3408362
2.4506652 1.5787407 -0.78111588
3.2595874 2.0998556 0.067680432
3.0671115 1.9751035 -0.84221675
8.568276 5.5155296 0.5340361
3.9392577 2.5347878 -0.91054053
8.6113052 5.5389776 0.89578672
5.630379 3.6215815 -1.0603128
8.614124 5.5386655 1.2574479
2.6484849 1.702256 -0.38656956
8.6486741 5.5566143 1.6281699
3.2187442 2.0671905 -0.33467805
8.6609881 5.5623904 2.0008231
3.2068043 2.0587318 -0.19971401
10.475124 6.7223288 2.8735248
3.2030197 2.0547236 -0.066423859
10.503756 6.735528 3.3434244
2.455887 1.5706053 -0.78111588
3.250049 2.0776939 0.067331384
3.050998 1.9496944 -0.83591812
8.5831531 5.4849349 0.53382675
3.9476417 2.5217108 -0.91054053
8.6363427 5.5146801 0.89648397
5.6429864 3.6019057 -1.0603128
8.6534867 5.521376 1.2603727
2.6360006 1.6812586 -0.38388843
8.667053 5.5279037 1.6281699
3.2104616 2.0468655 -0.33310925
8.691941 5.5395101 2.0034945
3.2021798 2.0400135 -0.19898131
10.495238 6.6836293 2.872625
3.2098158 2.0440907 -0.066423859
10.521146 6.697547 3.3418715
2.4417811 1.5496014 -0.77490422
3.2467906 2.060476 0.067121955
3.0739022 1.9500052 -0.84041714
8.607307 5.4581495 0.53414077
3.95642 2.5079156 -0.91054053
8.6555399 5.4845001 0.89648397
5.6548997 3.5831731 -1.0603128
8.6734256 5.4937118 1.2606165
2.6499473 1.6778176 -0.38510713
8.6862962 5.4976164 1.6281699
3.2159033 2.0345812 -0.33293494
8.7152402 5.5138051 2.0046393
3.2055511 2.0272484 -0.19877196
10.523933 6.6529543 2.8744246
3.2186219 2.0339421 -0.066458764
10.56406 6.6731611 3.3480832
2.4537142 1.5451863 -0.77697477
3.2881671 2.069868 0.067820051
3.0777299 1.9366499 -0.83951733
3.9651502 2.4940898 -0.91054053
8.6678849 5.4500111 0.89578672
8.6968646 5.4639973 1.261104
2.6776392 1.682286 -0.38827573
8.7054335 5.467262 1.6281699
3.2077988 2.0138091 -0.33136613
8.7503571 5.4912171 2.0080739
3.2112678 2.0144245 -0.19866729
10.551549 6.616408 2.8753244
3.2206195 2.0195076 -0.066354049
10.579105 6.631115 3.345495
2.4525398 1.5325169 -0.77490422
3.077524 1.9223036 -0.83771773
3.973832 2.4802337 -0.91054053
8.690237 5.4218306 0.89613535
8.7166204 5.4361779 1.2613477
2.6818106 1.6718789 -0.38803199
8.7345237 5.4431096 1.6300471
3.2266466 2.0099736 -0.33258631
8.7501883 5.4507512 2.0038761
3.2331891 2.013266 -0.19960934
10.585012 6.58859 2.8784737
10.607108 6.5972075 3.3470479
2.4625334 1.5274305 -0.77645714
1.83039 1.1348899 0.037592483
3.0941537 1.917709 -0.84041714
1.8572177 1.151075 0.11451107
3.9820349 2.4670423 -0.91054053
5.6417244 3.4925668 -1.0509267
8.7439833 5.410941 1.2625664
2.6758128 1.6551974 -0.38632582
8.7525257 5.4141149 1.6300471
3.2451564 2.0065975 -0.33380649
8.7725017 5.4222386 2.0046393
3.2350997 1.9988184 -0.19929532
10.609604 6.5526252 2.8789236
10.643722 6.5711304 3.3517066
2.4908833 1.533001 -0.78370407
1.7966772 1.1057555 0.036824578
3.0905373 1.9013112 -0.83771773
1.8306009 1.1257528 0.11262698
5.6768374 3.4883177 -1.0553069
8.7483467 5.3736033 1.2606165
2.6762119 1.6431989 -0.3855946
8.7781054 5.3876631 1.6312986
3.2691234 2.0056766 -0.33554961
8.8021481 5.4003049 2.0073106
3.2502232 1.9933002 -0.19981868
10.621307 6.5112955 2.8762242
1.8141419 1.1117076 -0.037138721
10.673184 6.5379732 3.3537772
2.469576 1.5086191 -0.77542186
1.815886 1.1088566 0.037138721
3.1137888 1.9006648 -0.84221675
1.8258002 1.1144732 0.11210362
5.6957258 3.4725938 -1.0565584
2.6921031 1.6400438 -0.38705703
8.7959233 5.3585243 1.6312986
3.2740548 1.9937885 -0.3353753
8.8226221 5.3705675 2.0076922
3.270811 1.9902484 -0.20065606
10.658955 6.4832948 2.8802733
1.8178185 1.1056856 -0.037138721
10.699758 6.5055546 3.3553301
2.4679575 1.4964149 -0.77335131
1.8195531 1.1028288 0.037138721
3.0967406 1.8761916 -0.83591812
1.6977605 1.0273905 0.17361424
5.70045 3.4495961 -1.0553069
2.6992256 1.6321346 -0.38730077
8.8196461 5.3308536 1.6322372
3.2792892 1.9813175 -0.33520099
8.8471044 5.3453422 2.0092187
3.2842315 1.9835212 -0.20107474
10.690406 6.4539558 2.8829727
1.8182428 1.0972671 -0.037068911
10.709168 6.460183 3.351189
2.4731659 1.487791 -0.77335131
1.8216779 1.0954401 0.037103816
3.1266539 1.879426 -0.84221675
1.7323473 1.0413108 0.10592798
4.0152501 2.4126057 -0.91054053
1.7011582 1.0217549 0.17361424
5.7158437 3.4317104 -1.0559326
2.7083109 1.624745 -0.38778825
8.8338875 5.2995448 1.6316115
3.2978023 1.9776047 -0.33642117
8.8623415 5.3124087 2.0084555
3.2945617 1.9740982 -0.20128409
10.721228 6.4216067 2.8852222
1.8373111 1.1004792 -0.037383055
10.743791 6.4325736 3.3553301
2.4949329 1.4890496 -0.77852769
1.8356032 1.0955422 0.037313245
3.126175 1.8650536 -0.84041714
1.6810792 1.002522 0.10257847
4.0236472 2.3985752 -0.91054053
1.6841757 1.0035718 0.1715225
5.703435 3.3985806 -1.0515525
2.7170951 1.6177861 -0.38827573
8.8659124 5.2767589 1.6341144
3.314959 1.9721934 -0.33746704
8.8832838 5.2849985 2.0092187
3.3045232 1.9652039 -0.20149343
10.749165 6.3900017 2.8870218
1.8497367 1.0991668 -0.037557579
10.779467 6.4029242 3.3594712
2.4898842 1.4748606 -0.77542186
1.8462989 1.0932034 0.037452864
3.0991259 1.8342784 -0.8314191
1.7015821 1.0071147 0.10362519
4.0315791 2.3852191 -0.91054053
1.6806346 0.99392454 0.17082526
5.7322682 3.3887037 -1.0546812
2.7156089 1.6047274 -0.38730077
3.3334903 1.9682808 -0.33868722
8.9016778 5.2539578 2.0092187
3.317902 1.9582957 -0.20191212
10.763582 6.3503601 2.8852222
1.8430367 1.0869318 -0.03734815
10.81229 6.3740105 3.3630947
2.4980921 1.4685538 -0.77645714
3.1051915 1.8239912 -0.8314191
1.6808026 0.98730439 0.10215979
4.0394666 2.3718368 -0.91054053
1.6598653 0.97422667 0.16838489
5.7639195 3.3816715 -1.0584356
1.6335767 0.95803054 0.23252671
2.7209155 1.5957133 -0.38730077
8.9512381 5.2432635 2.0164695
3.3381646 1.9553582 -0.20274949
10.798035 6.3225092 2.8888214
1.8535343 1.0848546 -0.037487769
10.83837 6.3410472 3.3646476
2.5003742 1.4570057 -0.77542186
1.7642217 1.0276262 0.035637814
3.1357493 1.8257824 -0.83771773
1.6742252 0.97481354 0.10153176
4.048544 2.3563089 -0.91054053
1.6429281 0.95582314 0.16629316
5.7392941 3.3376675 -1.0515525
1.671567 0.97170386 0.23740148
2.7441844 1.5952305 -0.38973816
1.7831455 1.0357333 -0.18041239
8.95942 5.2019541 2.0137981
3.3563515 1.9479575 -0.20337753
10.835715 6.2888268 2.8924207
1.8594158 1.078733 -0.037522674
10.86598 6.3013225 3.3656829
2.4985026 1.4448378 -0.77335131
1.6568189 0.95772188 0.033403906
3.1519105 1.8212236 -0.84041714
1.6497793 0.95326852 0.099857005
4.0563355 2.3428705 -0.91054053
1.5943249 0.9204839 0.16106381
5.7708615 3.3304656 -1.0553069
1.6266344 0.93838091 0.2305768
2.7546177 1.5890975 -0.39046938
1.6564835 0.95521511 0.30285712
1.7693088 1.0198646 -0.17866927
8.9698167 5.1682945 2.0122717
3.3645234 1.9378136 -0.2034822
10.866642 6.2586953 2.8951201
1.8855119 1.0855315 -0.037976436
10.890165 6.2671821 3.3667181
2.5032802 1.4365445 -0.77335131
1.7120229 0.98207264 0.03445105
3.1241217 1.7913743 -0.8314191
1.6286745 0.93388351 0.098391598
4.0640825 2.3294063 -0.91054053
1.6077411 0.92113467 0.16210968
5.7475907 3.2916762 -1.0490495
1.6125096 0.92311926 0.22813941
2.7633178 1.5819266 -0.39095685
1.7674927 1.011024 -0.17814634
8.9988363 5.1453425 2.014943
10.894105 6.2264938 2.8969197
1.887365 1.078281 -0.037941532
10.924309 6.2386988 3.3708592
2.5382474 1.4454431 -0.78266879
1.6631343 0.94671246 0.033403906
3.1435949 1.7887145 -0.83501831
1.5866286 0.9027962 0.095670128
4.0717847 2.3159165 -0.91054053
1.6281071 0.92564544 0.1638528
5.8203014 3.3077352 -1.0603128
1.5672331 0.89031234 0.22131473
2.7650964 1.5707934 -0.39046938
1.6284273 0.92469954 0.29659975
1.7656375 1.0022066 -0.1776234
9.0226796 5.1193484 2.0164695
3.3700185 1.9121037 -0.20306351
10.907912 6.1864879 2.8951201
1.8926699 1.0730025 -0.037976436
10.958383 6.2100579 3.3750003
2.513248 1.4190335 -0.77335131
1.6561441 0.93471317 0.033194477
3.1365516 1.7695204 -0.8314191
1.5934059 0.8989376 0.095879472
4.0802456 2.3009771 -0.91054053
1.5863626 0.89423418 0.1593207
5.7773146 3.2553495 -1.050301
1.5756746 0.88748472 0.22204594
2.7812127 1.5664933 -0.39193181
1.6386908 0.92260132 0.29785122
1.7484632 0.98400258 -0.17553167
9.0533599 5.0929823 2.0191408
3.4588181 1.9457637 -0.20798309
10.945801 6.1550633 2.8991692
10.976018 6.1670129 3.3734474
2.5246814 1.4144684 -0.77542186
1.6348085 0.91553674 0.03270581
3.1730101 1.7762436 -0.83951733
1.5998637 0.89559993 0.096088816
4.0021902 2.2394994 -0.89145963
1.5858415 0.88702346 0.15897207
1.5803418 0.88322317 0.22228968
2.7915906 1.5601672 -0.39266302
1.6279451 0.90945491 0.29534827
1.7343213 0.96848506 -0.17378855
3.4356041 1.9177342 -0.20620367
10.976362 6.124429 2.9018686
1.7726254 0.98865774 -0.035428385
10.996408 6.1305812 3.3734474
2.5296034 1.405647 -0.77542186
1.6310018 0.90594063 0.03256619
3.172376 1.7613731 -0.83771773
1.6029801 0.89000991 0.096088816
1.5837014 0.87858283 0.15844914
1.5764704 0.8738518 0.22131473
2.8057006 1.5552252 -0.39388172
1.6311097 0.90376678 0.29534827
1.7272338 0.95663332 -0.17274268
3.3898569 1.8767087 -0.20306351
11.007904 6.0917385 2.904568
1.7760656 0.9824641 -0.035428385
11.01774 6.0921592 3.3734474
2.5444013 1.4028473 -0.77852769
1.6164837 0.8908751 0.032217142
3.144062 1.7320374 -0.82871968
1.6059227 0.88468934 0.096088816
1.5813698 0.87044399 0.15792621
1.572402 0.86479271 0.22033977
2.8299757 1.5564356 -0.39656284
1.6271736 0.89454628 0.29409679
1.7269044 0.94898127 -0.17239406
11.031461 6.0570773 2.9054678
1.7793138 0.97656905 -0.035428385
11.049738 6.0620939 3.3770709
2.5391127 1.3883961 -0.77542186
1.5915085 0.86988188 0.031658665
3.1603497 1.7266581 -0.8314191
1.5616775 0.85322299 0.093262674
3.2083142 1.7521365 -0.7105727
1.5721571 0.85823608 0.15670603
3.181921 1.7362808 -0.57411449
1.5701829 0.85644708 0.21960856
2.8301633 1.543696 -0.39583163
1.5921306 0.8680578 0.28721368
1.728457 0.94199404 -0.17221975
1.7067915 0.92980022 0.37780181
1.9698092 1.0726372 -0.11754656
11.049114 6.0166695 2.904568
1.7194827 0.93593571 -0.034171812
11.081013 6.0290259 3.3801767
2.523326 1.368914 -0.7692102
1.5943844 0.86459946 0.031658665
3.1660581 1.7161685 -0.8314191
1.5803013 0.85660565 0.094204721
1.5872581 0.85965986 0.15792621
1.5747602 0.85218022 0.2198523
2.8387585 1.5361918 -0.3963191
1.5880506 0.85901397 0.2859622
1.7245608 0.93246657 -0.1715225
1.7098655 0.92413518 0.37780181
1.9891703 1.0746432 -0.1184886
11.075863 5.9837013 2.9063676
1.662753 0.89792235 -0.032985048
11.107745 5.9959174 3.3822473
2.5283264 1.3596563 -0.7692102
1.5799291 0.84928192 0.031309617
3.1568773 1.6962514 -0.82736998
1.5834303 0.8508078 0.094204721
1.5570455 0.83593043 0.15461429
1.5813717 0.84827944 0.22033977
2.8793559 1.5445442 -0.40119388
1.598152 0.85692157 0.28721368
1.7121624 0.91766869 -0.1699537
1.7132411 0.917862 0.37780181
2.005233 1.0742955 -0.11922131
11.108028 5.9485859 2.909067
1.6730848 0.89559693 -0.033124667
11.124537 5.952431 3.3806944
2.5362302 1.3530833 -0.77024548
1.5792078 0.8421561 0.031239808
3.1435685 1.67569 -0.82242105
1.5774305 0.84085476 0.093681362
4.0682522 2.1676841 -0.89603904
1.563326 0.83263569 0.15496291
1.584176 0.84303076 0.22033977
1.5800569 0.84048494 0.28345925
1.7011226 0.90450295 -0.16855921
1.6573326 0.8808484 0.3648268
11.134577 5.9153748 2.9108666
1.6513199 0.8769136 -0.032636
11.157865 5.922754 3.3848355
2.5480035 1.3473908 -0.77231603
1.5981951 0.84477271 0.031553951
3.14452 1.6614259 -0.82107135
1.57697 0.83320147 0.093472018
4.1421385 2.1875989 -0.91054053
1.5557956 0.82131934 0.15391704
1.5767203 0.83166204 0.21887734
1.7663482 0.93168375 -0.24520112
1.588369 0.83745197 0.28439786
1.7044264 0.89826195 -0.16855921
1.6327584 0.86012758 0.35872091
2.106532 1.1092392 -0.12476892
11.16308 5.8781567 2.9126663
1.661601 0.87458091 -0.032775619
11.191466 5.8881151 3.3884589
2.5558792 1.3407287 -0.77335131
1.5797356 0.82832487 0.031135093
3.1500122 1.6509891 -0.82107135
1.5744173 0.82518594 0.093158002
1.5726308 0.82355001 0.15531153
1.5636397 0.81814618 0.21668369
9.044134 4.7321796 -1.2533043
1.5876365 0.83034916 0.28377212
1.7020988 0.88983573 -0.16803627
1.6216816 0.84743432 0.35566797
2.0004402 1.0449159 -0.11827926
11.185966 5.8429107 2.9135661
1.6715826 0.87276812 -0.032915239
11.217781 5.8545458 3.3905295
2.5431738 1.3233284 -0.76817493
1.58957 0.82677268 0.031274712
3.176218 1.6513213 -0.82647017
1.5647405 0.81351132 0.092425299
4.156556 2.1600792 -0.91054053
1.5629767 0.81190136 0.15409135
1.5628203 0.81112754 0.21619622
9.077396 4.7113067 -1.2557417
1.5728468 0.815983 0.28064343
1.6908905 0.87684883 -0.16664178
1.6209969 0.84024499 0.35490473
2.003713 1.0386262 -0.11827926
11.20701 5.8066811 2.914016
1.6531594 0.85618448 -0.032496381
11.252574 5.8253073 3.3951882
2.5423981 1.3122295 -0.76662201
1.5958572 0.82333062 0.031344522
3.1851405 1.6425659 -0.82736998
1.5780803 0.81381052 0.09305333
4.1636962 2.1462837 -0.91054053
1.558576 0.80306359 0.15339411
1.5760911 0.81139226 0.21765865
1.7490552 0.90043643 -0.24154504
1.575544 0.81076277 0.28064343
1.6867019 0.86759147 -0.16594453
1.6342503 0.84025118 0.35719444
1.9396492 0.99727228 -0.11430173
11.238337 5.7757207 2.9171653
1.6524321 0.84887021 -0.032426571
11.271829 5.7879604 3.3951882
1.7724884 0.91994848 -0.24520112
2.5575101 1.3081808 -0.76972784
1.5810594 0.80837269 0.030995474
3.1911395 1.6308807 -0.82736998
1.5810525 0.8080211 0.09305333
4.1715348 2.1310086 -0.91054053
1.5650578 0.79915788 0.15374273
1.5719814 0.8020016 0.21668369
1.7664898 0.90123689 -0.24349495
1.578505 0.80498267 0.28064343
1.6792201 0.85597455 -0.16489867
1.6338205 0.83247311 0.3564312
1.8009257 0.91761748 -0.10592798
11.280269 5.7451043 2.9225641
1.6590964 0.84462248 -0.032496381
11.301576 5.7509889 3.3977764
2.5428831 1.2900782 -0.76403382
1.5926488 0.80764736 0.031169998
3.1895773 1.6167653 -0.82557037
1.5765974 0.79916167 0.092634643
4.1785785 2.1171636 -0.91054053
1.5641444 0.7921632 0.15339411
1.5640049 0.79140669 0.21522126
1.764155 0.89268523 -0.24276373
1.5846912 0.80152688 0.28126917
1.6838274 0.8513003 -0.16507298
1.5945188 0.80579875 0.34727237
1.7754377 0.89722707 -0.10425322
11.29404 5.70503 2.9212144
1.6547479 0.83551085 -0.032356762
11.317136 5.7117391 3.3967411
2.5611777 1.2881382 -0.76817493
1.591885 0.80028668 0.031100188
3.1777889 1.5968717 -0.82107135
1.5615313 0.78468561 0.091587923
1.5722417 0.78938042 0.15391704
2.990789 1.5009414 -0.52999997
1.5667579 0.78594247 0.21522126
9.1521372 4.5910433 -1.2572041
1.5768845 0.79067789 0.27939195
1.6850075 0.84452472 -0.16489867
1.6148749 0.80902165 0.35108855
1.7499875 0.87671052 -0.10257847
11.315628 5.6664443 2.9216643
1.6576543 0.82972961 -0.032356762
11.36983 5.6886237 3.4065763
2.5585203 1.2761888 -0.76610437
1.5945301 0.7950034 0.031100188
3.1621371 1.5758944 -0.81567252
1.5641249 0.77950307 0.091587923
2.950489 1.4697738 -0.64073661
1.5695002 0.78149814 0.15339411
1.5693555 0.78074259 0.21522126
1.5759603 0.78368529 0.27876622
1.677094 0.83361147 -0.1638528
1.6175488 0.80366208 0.35108855
1.7600398 0.87445724 -0.10299716
11.350064 5.6366902 2.9257134
1.6496498 0.81889326 -0.032147333
11.386901 5.6500301 3.4060586
1.7991987 0.90254322 -0.24715103
2.5423981 1.2565314 -0.75989272
1.5830904 0.78206826 0.03082095
2.9389929 1.4512645 -0.75673535
1.5687622 0.77464933 0.091692595
2.9787425 1.4702461 -0.64569764
1.5616334 0.77045124 0.15234824
1.570426 0.7741077 0.21497752
9.2071123 4.5384477 -1.2603727
1.5646463 0.7709193 0.27626327
1.6694138 0.82217736 -0.16280693
1.6169607 0.79599388 0.35032532
1.7562163 0.86416554 -0.10257847
1.6346961 0.80401585 -0.031798285
11.411001 5.6099617 3.4070939
2.5708368 1.2599964 -0.76713965
1.5874709 0.77769399 0.030855855
2.9665415 1.4526517 -0.76258407
1.5767037 0.77207795 0.092006611
1.5677591 0.76701963 0.15269686
5.8364917 2.854217 -1.0290259
1.5676341 0.76628043 0.21424631
9.2238951 4.5087627 -1.2606165
1.5742936 0.76919525 0.27751474
1.6685504 0.81488818 -0.1624583
1.5878347 0.77512497 0.34345619
1.7357377 0.84695086 -0.10121774
1.6517319 0.80560345 -0.032077523
11.443433 5.5788631 3.411235
2.5841267 1.2547845 -0.76972784
1.5795167 0.76663145 0.030646426
3.1787354 1.54214 -0.81567252
1.5687411 0.76106318 0.09137858
4.2148917 2.0439149 -0.91054053
1.5777313 0.76474446 0.15339411
5.8931344 2.8551997 -1.0371605
1.5597125 0.75533829 0.21278387
9.2332122 4.4714642 -1.2596415
1.5788803 0.76428069 0.27782761
1.664352 0.80529606 -0.16176106
1.5941999 0.77100961 0.34421943
1.7135112 0.82871268 -0.099752333
1.6474714 0.79606408 -0.031937904
11.482939 5.5461255 3.416929
2.5639051 1.2344754 -0.76248091
1.5802484 0.76052219 0.030611521
3.1838318 1.5315904 -0.81567252
1.5676566 0.75412523 0.091169236
1.5784629 0.75864524 0.1532198
5.8384698 2.8048474 -1.0258972
1.5604192 0.74930265 0.21254013
9.2569367 4.4451177 -1.2608602
1.5831869 0.75989551 0.27814048
1.6741987 0.80321973 -0.1624583
1.6073692 0.77081229 0.34650914
1.7018428 0.81611699 -0.098914957
1.6212479 0.77677185 -0.031379427
11.516949 5.515526 3.4215878
2.5681986 1.2255182 -0.76248091
1.5865033 0.75672324 0.030681331
3.2102673 1.5305312 -0.82107135
1.5594624 0.74349133 0.090541204
1.5829002 0.75398755 0.15339411
5.8660604 2.792942 -1.0290259
1.5594404 0.74214512 0.21205266
9.2795665 4.41619 -1.2618352
1.5608561 0.74248477 0.27376031
1.6625975 0.79052641 -0.16106381
1.618916 0.76941047 0.34841723
1.7120388 0.81330198 -0.099333645
1.8024651 0.8562589 0.46069976
1.6275623 0.77282339 -0.031449236
11.536131 5.4752907 3.4215878
2.5547858 1.208733 -0.75730453
1.5998504 0.75658745 0.030890759
3.215325 1.5198772 -0.82107135
1.563725 0.73916942 0.090645876
1.5691776 0.74107681 0.1518253
1.5636881 0.73781685 0.2122964
9.3031365 4.389629 -1.2630539
1.5740295 0.7423605 0.27563753
1.6580011 0.78161039 -0.16036657
1.6232345 0.76487456 0.34879884
1.720147 0.81017325 -0.099647661
1.8052946 0.85027701 0.46069976
1.6301161 0.76742195 -0.031449236
11.552477 5.4361829 3.4210701
2.5659861 1.2030881 -0.75937508
1.5698888 0.73572378 0.030262473
3.2206108 1.5086443 -0.82107135
1.5681043 0.73455374 0.090750548
4.1534249 1.9447225 -0.89145963
1.5699503 0.7347503 0.15165099
1.5662541 0.73235406 0.2122964
9.33099 4.363014 -1.26476
1.5640842 0.73100685 0.27344744
1.6607194 0.77581812 -0.16036657
1.6098846 0.75172801 0.34536428
1.7246338 0.80530961 -0.099752333
1.7340851 0.80935421 0.44180387
1.6364094 0.76341795 -0.031519046
11.588891 5.4039885 3.4262465
2.5699615 1.1945724 -0.75937508
1.5813875 0.73472668 0.030436997
3.2043866 1.4881065 -0.81567252
1.5687201 0.72850844 0.090645876
1.5832222 0.73457143 0.15269686
1.559669 0.72298189 0.2110777
9.35081 4.3345519 -1.2654913
1.5844231 0.73412067 0.27657613
1.6632829 0.77030671 -0.16036657
1.5945524 0.73813795 0.3415481
1.7001076 0.78700079 -0.098182254
1.6978504 0.78559608 0.43190602
1.6461919 0.76134487 -0.031658665
11.620776 5.3720136 3.4303876
2.6217028 1.2069575 -0.77335131
1.5913361 0.73226936 0.030576616
1.5532344 0.71440802 0.089599157
1.5822831 0.72709986 0.15234824
1.5623084 0.71726056 0.2110777
9.3756544 4.3043916 -1.26671
1.5745356 0.72254139 0.27438605
1.6642841 0.76337464 -0.16019226
1.6043856 0.73556146 0.34307457
1.7247673 0.79075275 -0.099438317
1.6971752 0.77774419 0.43100622
1.6416991 0.75197515 -0.031519046
11.656196 5.336623 3.4350464
1.5864782 0.72366869 0.030436997
1.5628641 0.71256764 0.090017845
1.8686638 0.85159914 -0.39917242
1.5937513 0.72597839 0.1532198
1.5682919 0.71372033 0.21156518
1.873639 0.85268201 -0.25275702
1.5679325 0.71322647 0.27282171
1.6577378 0.75372824 -0.1593207
1.5978793 0.7261757 0.34116648
1.7019239 0.77346002 -0.09797291
1.6642597 0.75599263 0.42200818
1.6259757 0.73825976 -0.031169998
11.666792 5.2947469 3.4329758
1.8481475 0.83602438 -0.54351999
1.5925135 0.72005148 0.030506806
1.9160969 0.86595627 -0.48544438
1.5670385 0.70820362 0.090122517
1.8643208 0.84216487 -0.39764595
1.5779912 0.71249036 0.15147668
1.9643527 0.88652656 -0.34134
1.5833166 0.7142296 0.21327135
1.8728373 0.84483158 -0.25226954
1.5774922 0.7112709 0.27407318
1.6565953 0.74658958 -0.15897207
1.6181788 0.72893641 0.34498266
1.7190476 0.77437448 -0.098810285
1.7058499 0.76807122 0.43190602
1.6284149 0.73286377 -0.031169998
11.694856 5.2607844 3.4360816
