1.2644806 -2.6052521 -0.45866585
2.1739694 -4.4810935 0.61154037
1.5764053 -3.2508094 -0.44360441
2.1686656 -4.4741372 0.7874911
2.1613626 -4.4610541 -0.43368698
2.1665651 -4.4717921 0.96587513
2.1876278 -4.5172746 -0.26304052
2.1676779 -4.4780717 1.1486001
2.1721693 -4.4893481 -0.087052603
2.1557533 -4.4574044 1.3267064
2.1590379 -4.4801446 0.08680827
2.1634272 -4.491257 0.26126109
1.058653 -2.1987362 -0.47435116
2.1695486 -4.507989 0.43769614
1.2493845 -2.5971893 -0.45647577
2.1583143 -4.4886548 0.61154037
1.5630359 -3.250652 -0.44287319
2.1538169 -4.4813041 0.7874911
2.1465573 -4.4681969 -0.43368698
2.1466933 -4.4704787 0.96396704
2.170982 -4.5230828 -0.26293584
2.1579339 -4.49791 1.1517494
2.1555402 -4.4929207 -0.086982794
2.1401248 -4.4627867 1.3261888
2.1476179 -4.4944968 0.086947889
2.1494576 -4.5023862 0.26147044
1.0526625 -2.2059619 -0.4751144
2.1503686 -4.5083415 0.43699889
1.2424659 -2.604884 -0.45710151
2.1417089 -4.4922036 0.61105289
1.5457016 -3.2435441 -0.44116702
2.143258 -4.4994954 0.78936831
2.1309473 -4.4756625 -0.43368698
2.1327008 -4.4793454 0.96434866
2.1576876 -4.533864 -0.26314519
2.1388208 -4.4962424 1.1494999
2.147572 -4.5166711 -0.087296937
2.1278508 -4.4772092 1.3282593
2.1345524 -4.5095678 0.087087508
2.1303115 -4.5026402 0.26105175
1.0399199 -2.1989742 -0.47282469
2.144836 -4.5374356 0.43909063
1.2312224 -2.6058483 -0.45647577
2.1294683 -4.5089981 0.61227158
1.529566 -3.2402119 -0.43994833
2.1300686 -4.5123084 0.79030692
2.0949064 -4.4398286 -0.4295035
2.1254809 -4.5066645 0.96854646
2.1367974 -4.532709 -0.26262183
2.1190043 -4.497 1.1477003
2.1317928 -4.52414 -0.087296937
2.1171483 -4.4950957 1.3313652
2.1229846 -4.5238625 0.087227127
2.1154292 -4.5118573 0.26115642
1.027239 -2.1919245 -0.47053498
2.122223 -4.5304609 0.43769614
1.2150328 -2.5938173 -0.45365995
2.1145043 -4.5160349 0.61227158
1.5171298 -3.2416705 -0.43946085
2.1084456 -4.5071913 0.78811683
2.0439515 -4.371311 -0.42218242
2.1146825 -4.5225802 0.97045455
2.1319025 -4.5614827 -0.26387789
2.1131529 -4.5234235 1.1526492
2.1151415 -4.5297419 -0.087262032
2.1063469 -4.512962 1.334471
2.1063895 -4.5316132 0.087227127
2.1063994 -4.5337045 0.2619938
1.024543 -2.2061805 -0.47282469
2.1097512 -4.54507 0.43839339
1.2055178 -2.5982532 -0.45365995
2.1012786 -4.530958 0.61324654
1.5035686 -3.2436072 -0.43897337
2.1010073 -4.5324455 0.79124552
2.0956888 -4.5230407 -0.43612734
2.0980922 -4.5303006 0.97045455
2.1151695 -4.5692659 -0.26387789
2.0949229 -4.5276011 1.1517494
2.1001566 -4.5389124 -0.087296937
2.077606 -4.4922325 1.3261888
2.0880031 -4.5313087 0.087087508
2.0922315 -4.5446581 0.26220314
1.0168357 -2.2097434 -0.47282469
2.0988684 -4.5632673 0.43943925
1.1977205 -2.6040312 -0.45397282
2.0903878 -4.5469193 0.61446523
1.5010929 -3.266613 -0.44141076
2.0851734 -4.5397518 0.79124552
2.0882006 -4.5484353 -0.43787045
2.0806002 -4.5318806 0.9693097
2.1050037 -4.5871464 -0.26450592
2.086397 -4.5486936 1.1553486
2.0934673 -4.566211 -0.08768089
2.0707654 -4.5187758 1.3318828
2.0722485 -4.5429314 0.087157318
2.0788747 -4.5595651 0.26262183
1.0136147 -2.2241744 -0.4751144
2.0870846 -4.5818082 0.44048512
1.1852573 -2.6032175 -0.45303421
2.0704468 -4.5494919 0.61373401
1.4770317 -3.2470557 -0.43799842
2.0742458 -4.5599505 0.79343561
2.0632692 -4.5379212 -0.43612734
2.063996 -4.5416234 0.96969131
2.0807666 -4.5806477 -0.26366855
2.0673046 -4.5531224 1.1544488
2.0742371 -4.5683908 -0.087576176
2.0613746 -4.5421677 1.3365415
2.0621154 -4.5607108 0.087366747
2.0596573 -4.5595133 0.26220314
0.99614978 -2.2062272 -0.47053498
2.0694393 -4.5854336 0.4401365
1.1839314 -2.6233382 -0.45585003
2.0545325 -4.5545233 0.61349027
1.4548327 -3.2266008 -0.43458608
2.0575043 -4.5653622 0.79312274
2.0768756 -4.6104928 -0.44240255
2.0569876 -4.5663431 0.97350749
2.0721251 -4.6020919 -0.26450592
2.050595 -4.5563987 1.153549
2.0623796 -4.5847218 -0.0877507
2.0502602 -4.5599072 1.3396474
2.0486544 -4.5755386 0.087506366
2.0469925 -4.5739671 0.26262183
0.99325248 -2.2204437 -0.47282469
2.051794 -4.5889916 0.43978788
1.1614128 -2.5988043 -0.45084413
2.0483506 -4.5855852 0.61665888
1.4527086 -3.2536629 -0.43751094
2.0407503 -4.5707127 0.79280987
2.0900001 -4.6832139 -0.44867776
2.0418368 -4.5774376 0.97427073
2.0584969 -4.6169524 -0.26492461
2.0386407 -4.5745638 1.1562484
2.0422934 -4.5827603 -0.087576176
2.0327586 -4.5635068 1.3386121
2.0334701 -4.5823071 0.087506366
2.0342519 -4.5883881 0.26304052
0.99344959 -2.2418464 -0.47664087
2.035763 -4.5961257 0.43978788
1.1567885 -2.6116721 -0.45240847
2.0323294 -4.5905374 0.61641514
1.4419111 -3.2584623 -0.43751094
2.0239841 -4.5760018 0.792497
2.0849184 -4.7159923 -0.45111812
2.0258524 -4.5823878 0.97388911
2.0480188 -4.6347143 -0.26555264
2.0234597 -4.581299 1.1562484
2.0367831 -4.613643 -0.088029938
2.0168166 -4.5705746 1.3386121
2.0190719 -4.5930385 0.087576176
2.0246491 -4.6079084 0.26377322
0.9781155 -2.2271531 -0.47282469
2.0173071 -4.5955539 0.43909063
1.1413155 -2.6012228 -0.44990552
2.0186849 -4.6030574 0.61714636
1.4289342 -3.2598395 -0.43702347
2.0159359 -4.5989712 0.79531282
2.02929 -4.6316345 -0.44240255
2.0106321 -4.5912298 0.97427073
2.0286247 -4.6345164 -0.26513395
2.0137045 -4.602617 1.1598476
2.0206709 -4.6185398 -0.087995033
2.003971 -4.5825475 1.340165
2.0070244 -4.6070419 0.087715795
2.0093492 -4.616779 0.26387789
0.97033533 -2.2305538 -0.47282469
2.0155537 -4.6354561 0.44222824
1.1326833 -2.6049932 -0.44990552
1.9970796 -4.5951616 0.61519645
1.392807 -3.2062969 -0.42922383
2.0014436 -4.609604 0.79593856
2.0131102 -4.6386898 -0.44240255
1.9938328 -4.5942701 0.97350749
2.0100657 -4.6338888 -0.26471527
1.9968802 -4.6056936 1.1589478
2.0093077 -4.636574 -0.088204462
1.9910341 -4.5966056 1.3422356
1.9877366 -4.6110417 0.087645985
1.9900434 -4.6186099 0.26356388
0.96215342 -2.2340953 -0.47282469
1.9953993 -4.6354922 0.44153099
1.1195496 -2.602065 -0.44865405
1.9841262 -4.6137377 0.61665888
1.3826144 -3.2150275 -0.4297113
1.9868754 -4.6223532 0.79687716
2.0212625 -4.704616 -0.44798052
1.9823748 -4.6163236 0.97656044
1.9969846 -4.6525848 -0.2653433
1.9814859 -4.6186997 1.1602975
1.9907235 -4.6402319 -0.088134653
1.9795028 -4.6163007 1.345859
1.9787191 -4.6323195 0.087925224
1.9754771 -4.6292023 0.26377322
0.94048448 -2.204935 -0.46595557
1.9792063 -4.6424292 0.44153099
1.1171123 -2.6203003 -0.451157
1.9703719 -4.6239443 0.61714636
1.3776064 -3.2344448 -0.43166121
1.968407 -4.6238079 0.79593856
1.9798652 -4.6529764 -0.44240255
1.970899 -4.6319046 0.97846853
1.9854535 -4.6683712 -0.26586666
1.9661589 -4.6252452 1.1602975
1.9815518 -4.6637167 -0.088448796
1.9626217 -4.6214042 1.3453414
1.9648426 -4.646908 0.088064843
1.9639712 -4.6471081 0.26440125
0.94042158 -2.2262897 -0.46977175
1.9629891 -4.6493096 0.44153099
1.0982845 -2.6025376 -0.44740257
1.959583 -4.6457673 0.61909626
1.3549459 -3.2138638 -0.42824887
1.9514875 -4.6288305 0.79562569
1.9636112 -4.6598591 -0.44240255
1.9561952 -4.6445252 0.97961338
1.9675548 -4.6737761 -0.26576199
1.9559954 -4.6485863 1.1643467
1.9598314 -4.6577029 -0.088204462
1.946478 -4.6282269 1.3453414
1.9447861 -4.6423318 0.087855414
1.9539064 -4.6686746 0.26523863
0.94325149 -2.2549153 -0.4751144
1.9436738 -4.6487807 0.44083375
1.0911721 -2.6098103 -0.44802831
1.9434009 -4.6504084 0.61885253
1.3534621 -3.24032 -0.43117374
1.9459725 -4.6611348 0.80000585
1.9749551 -4.7328791 -0.44867776
1.9407826 -4.6509866 0.97961338
1.9543516 -4.6858051 -0.266076
1.9428189 -4.6604432 1.1656964
1.9504832 -4.6811285 -0.088518605
1.9332815 -4.6421266 1.3474119
1.9316344 -4.6564804 0.087995033
1.9353539 -4.6677485 0.26481994
0.93727198 -2.2616582 -0.47587763
1.9328219 -4.6662449 0.44187962
1.0843224 -2.6190788 -0.44896691
1.9263971 -4.6553296 0.61860879
1.326969 -3.208337 -0.42629896
1.92975 -4.6657368 0.79969299
1.9699058 -4.7651799 -0.45111812
1.9215369 -4.650475 0.97808691
1.9341713 -4.6833684 -0.26555264
1.9257955 -4.6653952 1.1652465
1.9372382 -4.693116 -0.08862332
1.917877 -4.6485121 1.3474119
1.9192227 -4.6702587 0.088134653
1.9182901 -4.672628 0.26471527
0.91595646 -2.2322228 -0.46900851
1.9346665 -4.7172044 0.44606309
1.0771304 -2.6263154 -0.44959265
1.9162194 -4.6745494 0.62031496
1.3253539 -3.2347624 -0.42922383
1.918692 -4.6852407 0.80188307
1.9135418 -4.6749909 0.98190309
1.9231676 -4.7008478 -0.26618067
1.9088388 -4.6681482 1.1643467
1.9216009 -4.7017007 -0.088658225
1.9074834 -4.6694855 1.3515531
1.9065469 -4.6905612 0.088378986
1.9041581 -4.6870291 0.26513395
0.91515505 -2.2537551 -0.47282469
1.9023788 -4.6873409 0.44257686
1.0685233 -2.6340929 -0.45021839
1.9042234 -4.6965898 0.62226487
1.3203791 -3.2582252 -0.43166121
1.8977974 -4.6830878 0.80031872
1.8977873 -4.6877632 0.98304794
1.9095985 -4.7193062 -0.2668087
1.8930923 -4.6808629 1.1656964
1.9051052 -4.710566 -0.08869313
1.8932521 -4.6836097 1.3536236
1.8902352 -4.6950027 0.088344081
1.8959838 -4.7140303 0.26628535
0.89849516 -2.2350769 -0.46824527
1.8904623 -4.7050453 0.44362273
1.0472624 -2.6064615 -0.44489962
1.8908578 -4.7084049 0.62299608
1.2992149 -3.2367947 -0.42824887
1.8836453 -4.6951838 0.80125733
1.8793089 -4.6867419 0.98152147
1.8983962 -4.7367361 -0.26743674
1.8840814 -4.7033959 1.1697455
1.8901372 -4.7209002 -0.088762939
1.8725853 -4.6794284 1.3505178
1.8708736 -4.6941419 0.088204462
1.8803411 -4.7202917 0.26628535
0.87800638 -2.2052122 -0.46137615
1.8719027 -4.7038837 0.44292548
1.0381578 -2.6101013 -0.44489962
1.8729442 -4.7112872 0.62250861
1.2879084 -3.24131 -0.42824887
1.8731711 -4.7142548 0.80344741
1.8665593 -4.7023971 0.98342956
1.8825869 -4.7451904 -0.26754141
1.8705253 -4.71719 1.1715451
1.875857 -4.7330463 -0.088867654
1.8599046 -4.6927962 1.3525883
1.8596136 -4.713665 0.088448796
1.86376 -4.7290099 0.26639002
0.88182107 -2.2374879 -0.46748204
1.8700759 -4.7474642 0.44641171
1.0319351 -2.6210614 -0.44615109
1.8579411 -4.7214907 0.62299608
1.2693206 -3.2273125 -0.42581149
1.8573253 -4.7247655 0.80407315
1.8486976 -4.7052294 0.98266633
1.8652816 -4.7498739 -0.26743674
1.8533359 -4.7218766 1.1710952
1.8637059 -4.7507348 -0.089077082
1.8455129 -4.7067757 1.3546589
1.8431486 -4.7201276 0.088448796
1.8451632 -4.7277221 0.26597133
0.90539825 -2.3210294 -0.48427323
1.8578352 -4.7651009 0.44745758
1.0163245 -2.6080825 -0.44333527
1.8428896 -4.7316469 0.62348356
1.2580474 -3.2317236 -0.42581149
1.8422541 -4.7349019 0.80469889
1.8408007 -4.7336112 0.98724574
1.8523079 -4.765664 -0.2679601
1.8375478 -4.7301336 1.1715451
1.8500065 -4.7646679 -0.089216702
1.8354884 -4.7272767 1.3588
1.8331488 -4.7433198 0.088762939
1.8344064 -4.7490389 0.2668087
1.8454941 -4.7827097 0.44850345
1.0129009 -2.6263587 -0.44583823
1.8306457 -4.7491644 0.62494599
1.2381951 -3.2138668 -0.42288662
1.8242953 -4.7376168 0.80407315
1.8228558 -4.7363434 0.98648251
1.8413978 -4.7870135 -0.26879747
1.8259206 -4.7492516 1.1746944
1.8326462 -4.76923 -0.089181797
1.8210548 -4.7390648 1.3603529
1.8172947 -4.7515575 0.088797844
1.8198393 -4.7631933 0.26722739
1.825945 -4.7816774 0.44780621
1.0065445 -2.6372605 -0.4470897
1.8204245 -4.7722182 0.62713964
1.226969 -3.2181693 -0.42288662
1.8099822 -4.7473319 0.80469889
1.8119019 -4.7573551 0.98953545
1.8253873 -4.7952786 -0.26890214
1.8107174 -4.7592391 1.1755942
1.8152766 -4.7737289 -0.089146892
1.8029867 -4.7439017 1.3598353
1.8014054 -4.7597424 0.088832749
1.8068605 -4.7766742 0.26764608
1.8092427 -4.788022 0.44780621
0.97848867 -2.5908626 -0.43864224
1.8023532 -4.7748292 0.62665216
1.215728 -3.2224327 -0.42288662
1.7995397 -4.7724173 0.80782758
1.7932075 -4.7581394 0.9883906
1.8142697 -4.8165737 -0.26973952
1.7947801 -4.7673545 1.1760441
1.8070528 -4.8024954 -0.08956575
1.7884565 -4.755591 1.3613882
1.787585 -4.7734922 0.088972368
1.7901758 -4.7829523 0.26764608
2.6130718 -6.9889779 0.65279651
0.9805024 -2.6238688 -0.44364814
1.7835913 -4.7755127 0.62592095
1.1961416 -3.2043398 -0.41996176
1.7864672 -4.7857612 0.80907905
1.7759016 -4.7625304 0.98800898
1.7897732 -4.8022907 -0.26858813
1.7835699 -4.7881997 1.1796433
1.7888826 -4.8050259 -0.08949594
1.7745403 -4.7690472 1.3634587
1.7785537 -4.8003294 0.089356321
1.7748564 -4.7929179 0.26785542
1.7813021 -4.8154852 0.4492007
0.97270743 -2.630981 -0.44427388
1.7717271 -4.7947437 0.62762712
1.1821982 -3.2010469 -0.4189868
1.7745414 -4.8049392 0.81126914
1.8200253 -4.9307441 -0.4598337
1.7694592 -4.796329 0.99373325
1.7785269 -4.8235004 -0.2694255
1.7621281 -4.7815966 1.176494
1.7762459 -4.8224997 -0.089705369
1.7598845 -4.7806512 1.3650116
1.7967049 -4.8055055 0.44885208
1.7636991 -4.8143265 0.08949594
1.7600244 -4.8068929 0.26827411
1.7629561 -4.8201105 0.44902639
0.96305787 -2.6345285 -0.44427388
1.7589101 -4.814257 0.62933329
1.1718196 -3.2090877 -0.41947428
1.7542083 -4.8039888 0.81001766
1.7511951 -4.8009378 0.99335163
1.7601518 -4.8281102 -0.26932083
1.7479266 -4.797178 1.1787435
1.7551373 -4.8195827 -0.089530845
1.7464915 -4.7958413 1.3675998
1.7462019 -4.8185736 0.089461035
1.7479955 -4.8261524 0.26900682
1.7508649 -4.8393498 0.45024657
0.95385578 -2.6378741 -0.44427388
1.7454681 -4.829702 0.63055198
1.1633082 -3.2206267 -0.42044923
1.7360864 -4.8063671 0.80939192
1.7370913 -4.8144083 0.9948781
1.745998 -4.8417401 -0.26973952
1.7357959 -4.8160832 1.1818928
1.7444024 -4.8426121 -0.089844988
1.7262845 -4.7949398 1.3655293
1.7320703 -4.8321693 0.089600655
1.7336614 -4.8419285 0.26953017
1.7339618 -4.8454319 0.45024657
0.93732442 -2.6207277 -0.44083232
1.7312714 -4.8432424 0.63152694
1.1493876 -3.2171903 -0.41947428
1.7259444 -4.8310001 0.81252061
1.7674279 -4.9498412 -0.4598337
1.7229148 -4.8278387 0.99640457
1.7284155 -4.8459241 -0.26963485
1.7255176 -4.8404689 1.1863919
1.7274879 -4.8486717 -0.089844988
1.7155613 -4.8151964 1.3696704
1.7131878 -4.8325316 0.08949594
1.7200828 -4.8573641 0.27005353
1.7223554 -4.8664809 0.45164106
0.93146438 -2.6332951 -0.44239667
1.7117081 -4.8417699 0.63055198
1.1421185 -3.232413 -0.42093671
1.7141462 -4.8540574 0.81533643
1.7034384 -4.8264181 0.9948781
1.7134828 -4.8575784 -0.26994886
1.7079627 -4.8446248 1.185942
1.7211852 -4.8848489 -0.090403465
1.7011097 -4.8305627 1.3722586
1.7141716 -4.8894336 0.09043837
1.6986822 -4.8479622 0.26921616
1.713256 -4.8950298 0.4537328
0.91704888 -2.6216138 -0.43989372
1.6993826 -4.8608325 0.63225815
1.1242803 -3.2176401 -0.41849933
1.6973885 -4.8578502 0.81502356
1.6917562 -4.8471636 0.99793105
1.6978319 -4.8673017 -0.27015821
1.6897584 -4.8468769 1.1850422
1.6988597 -4.8757204 -0.090124227
1.6888954 -4.847123 1.3753644
1.6885789 -4.8708254 0.089984608
1.6848233 -4.8654795 0.26984419
1.6831264 -4.8633239 0.45024657
0.90853788 -2.6266658 -0.44020658
1.680459 -4.8611064 0.63152694
1.1156348 -3.2290501 -0.41947428
1.6757037 -4.8528357 0.81314635
1.6799499 -4.8678861 1.000984
1.6866926 -4.8901915 -0.27110025
1.6753697 -4.8601151 1.1868418
1.6942059 -4.9175429 -0.090787418
1.6711185 -4.8532805 1.3753644
1.6767534 -4.8918232 0.090263846
1.6764469 -4.8937134 0.27110025
1.5642235 -4.5713264 0.42270535
0.89808515 -2.626083 -0.43958085
1.5787334 -4.6189934 0.59935343
1.1005064 -3.2216536 -0.41801185
1.6625833 -4.869872 0.81502356
1.6654835 -4.8811529 1.0025105
1.6709016 -4.8998301 -0.2713096
1.6653097 -4.8862237 1.1917907
1.6667139 -4.8931404 -0.090228941
1.6568839 -4.8642815 1.3769173
1.655175 -4.884389 0.090019512
1.596568 -4.7141476 0.26084241
1.5444264 -4.5654348 0.42165948
0.88321884 -2.61236 -0.43676503
1.5587877 -4.6131923 0.597891
1.0879837 -3.221714 -0.41752437
1.6518912 -4.8943623 0.81815225
1.4259166 -4.2248258 -0.3901091
1.645925 -4.8794957 1.000984
1.6550639 -4.909418 -0.27151894
1.6488657 -4.8938537 1.1922406
1.6649392 -4.9444118 -0.091066657
1.6361953 -4.8590504 1.3738115
1.6385314 -4.8942152 0.090089322
1.5727546 -4.7031958 0.25990036
1.5264198 -4.5672854 0.42131086
0.8849028 -2.6493049 -0.44239667
1.5374691 -4.6056939 0.59618483
1.0749118 -3.2219139 -0.41703689
1.6391727 -4.9132156 0.82034233
1.3978179 -4.1922218 -0.38662287
1.6280297 -4.8854955 1.000984
1.6326412 -4.9021866 -0.27078624
1.6321486 -4.9035623 1.1931404
1.637969 -4.9239164 -0.090577989
1.62423 -4.8854623 1.3795055
1.5577767 -4.7102816 0.26000503
1.5117175 -4.5763695 0.42165948
0.8781267 -2.6598808 -0.44364814
1.5195169 -4.6053772 0.59545361
1.0636587 -3.2256464 -0.41703689
1.6217722 -4.9210666 0.8206552
1.3956481 -4.2349212 -0.3901091
1.617722 -4.9116605 1.0051818
1.616849 -4.9147831 1.1944901
1.6119912 -4.9057846 1.3836466
1.5444278 -4.7251827 0.26052839
1.4944971 -4.5778304 0.42131086
1.5089705 -4.6276389 0.59764726
1.056083 -3.240664 -0.41849933
1.6029961 -4.9189048 0.81940373
1.6054285 -4.9322123 1.0082347
1.6076457 -4.9419544 -0.27235632
1.6014909 -4.9259568 1.1958398
1.6054078 -4.940937 -0.090682704
1.5972436 -4.9187312 1.3857172
1.5095083 -4.6735276 0.25738823
1.4748382 -4.5716423 0.42026499
1.489155 -4.6215414 0.59618483
1.0386797 -3.2254353 -0.41606194
1.5888437 -4.9338718 0.82096807
1.5863987 -4.9321793 1.0070899
1.5958862 -4.9646489 -0.27329836
1.5866706 -4.9389384 1.1976394
1.5918187 -4.9579346 -0.090892133
1.5788838 -4.9205977 1.3846819
1.481648 -4.6426168 0.25539947
1.4727882 -4.6204232 0.42427416
1.4730137 -4.6267114 0.59618483
1.0298221 -3.2366079 -0.41703689
1.577601 -4.9582117 0.82409676
1.5697671 -4.9395579 1.0074715
1.5779421 -4.9682858 -0.27319369
1.5705999 -4.9481616 1.1985392
1.5738979 -4.9615548 -0.090857228
1.5666468 -4.9386964 1.3883054
1.4474156 -4.5906158 0.25225931
1.2310317 -3.909091 0.35855873
1.4532809 -4.6204632 0.5947224
1.0161368 -3.232608 -0.41606194
1.5644305 -4.9768797 0.82628684
1.5572199 -4.9599922 1.0105244
1.5605899 -4.9737636 -0.27319369
1.5556503 -4.9610518 1.2003388
1.5643431 -4.991825 -0.09131099
1.5502672 -4.9499359 1.3898583
1.4169276 -4.5520288 0.24985186
1.2049506 -3.8734126 0.35489818
1.4406775 -4.6368821 0.59618483
1.0013147 -3.2247605 -0.41459951
1.5452911 -4.9766507 0.82534824
1.5398968 -4.9653977 1.0105244
1.5455838 -4.9868117 -0.27361238
1.5383236 -4.9664518 1.2003388
1.5433609 -4.9857936 -0.091101562
1.5309877 -4.9458223 1.3872701
1.3892906 -4.5187657 0.24775842
1.179719 -3.8395048 0.35141195
1.4250654 -4.6437805 0.59642857
0.99354437 -3.2396231 -0.41606194
1.4616289 -4.7688626 0.78999405
1.5242799 -4.9763742 1.0116693
1.5316748 -5.0036351 -0.27424041
1.5255387 -4.9866992 1.203938
1.5317944 -5.0102737 -0.09145061
1.5196241 -4.9735709 1.3934817
1.3545575 -4.4583738 0.24419957
1.1553174 -3.807375 0.34810004
1.4128771 -4.662025 0.59813474
0.96842001 -3.1974747 -0.41021221
1.4045798 -4.6375624 0.76746749
1.5182451 -5.0223339 -0.27497311
1.5098133 -4.9975903 1.2052877
1.5025644 -4.9767334 1.3929641
1.3359133 -4.455656 0.24378088
1.1363015 -3.792299 0.34635692
1.3960259 -4.6650267 0.597891
0.95497773 -3.1932282 -0.40923726
1.3926638 -4.6597132 0.77028331
1.3922989 -4.6614576 0.94564938
1.494992 -5.0084647 -0.27392639
1.4979298 -5.0215044 1.2097868
1.5013494 -5.0361763 -0.091729848
1.4892779 -4.99887 1.3976228
1.3019267 -4.3924157 0.079966926
1.3160252 -4.4428265 0.24283884
1.1196657 -3.7847791 0.34531105
1.3802959 -4.6717751 0.59813474
0.94719828 -3.2079653 -0.41069969
1.3735946 -4.655073 0.76871896
1.3671342 -4.6361598 0.93954349
1.2979644 -4.4044278 -0.24064073
1.4792913 -5.0229638 1.208887
1.4882775 -5.056733 -0.092009087
1.4726929 -5.0037812 1.3976228
1.2483988 -4.2664266 0.077593399
1.2943426 -4.4263064 0.24168745
1.1053305 -3.7848394 0.34496243
1.3656474 -4.6822818 0.59886595
0.92599587 -3.1769479 -0.40631239
1.3545748 -4.6503566 0.76715462
1.3492965 -4.6352487 0.93839864
1.4633375 -5.0302862 -0.27455443
1.4628369 -5.0318394 1.2097868
1.4722908 -5.0676581 -0.092113801
1.4600682 -5.0255877 1.4022816
1.22684 -4.2477043 0.077174541
1.2775571 -4.4291017 0.24158277
1.0871456 -3.7714447 0.34339363
0.76115546 -2.6422767 -0.43551355
1.3536881 -4.7022812 0.60081586
0.9165471 -3.185884 -0.40704361
1.3336848 -4.6358392 0.76402593
1.3309397 -4.6323828 0.93687217
1.3134842 -4.5746364 -0.24943317
1.4458011 -5.0387882 1.2102367
1.456246 -5.0785332 -0.092218516
1.442703 -5.0346195 1.4033169
1.214198 -4.2596533 0.077314161
1.2694287 -4.456364 0.24283884
1.0657967 -3.7464713 0.34077895
0.75732934 -2.6639184 -0.43864224
1.3410634 -4.7203445 0.60252203
0.90921588 -3.2024313 -0.40874978
1.3156062 -4.6368956 0.76340019
1.3147616 -4.6370004 0.93687217
1.3007747 -4.5907231 -0.2500612
1.4335129 -5.0625545 1.2147357
1.4357873 -5.0739648 -0.092043992
1.4256458 -5.0414838 1.4038345
1.1944485 -4.2465407 0.077000017
1.2598104 -4.4819182 0.24399023
1.0484048 -3.7348228 0.33938446
0.72668423 -2.5904674 -0.42612748
1.3235065 -4.7211741 0.60203456
0.89910277 -3.2094085 -0.40923726
1.3082157 -4.6697649 0.76809322
1.374207 -4.9119254 0.99144354
1.2831288 -4.5894652 -0.24974718
1.4174057 -5.0731581 1.2160854
1.4164538 -5.0731676 -0.091939277
1.410635 -5.0557334 1.4064227
1.1801528 -4.2526111 0.077034922
1.254299 -4.5228562 0.24597899
1.0348297 -3.7365396 0.33921015
0.71869119 -2.5967958 -0.42675322
1.3059601 -4.7219387 0.60154708
0.88366378 -3.1972206 -0.40728735
1.3650539 -4.938958 0.811582
1.4030192 -5.0832316 1.0250259
1.2644455 -4.5842894 -0.24922382
1.4038311 -5.0931043 1.2196846
1.2219031 -4.4360913 -0.080315974
1.3981055 -5.0792524 1.4115991
1.1668852 -4.2624909 0.077139636
1.2427199 -4.5426187 0.24681637
1.0191551 -3.7305193 0.33833859
0.7106628 -2.6031 -0.42737896
1.2926044 -4.7379592 0.60300951
0.87876371 -3.223268 -0.41021221
1.3919702 -5.1056874 0.83817586
1.3878455 -5.0975696 1.026934
1.2515816 -4.6002384 -0.24985186
1.3839992 -5.0904517 1.217885
1.2043136 -4.4326106 -0.080176355
1.383787 -5.0931821 1.4141873
1.153563 -4.2723298 0.077244351
1.2304977 -4.5604271 0.24754907
1.0035351 -3.7244352 0.33746704
0.70208555 -2.6074723 -0.42769183
1.2760579 -4.7424424 0.60300951
0.8592598 -3.1956437 -0.40631239
1.3720878 -5.1028847 0.83692439
1.3710615 -5.1061752 1.0276972
1.2427626 -4.6315856 -0.25131726
1.3682406 -5.1027807 1.2196846
1.1867634 -4.4290612 -0.080036736
1.3641109 -5.0944875 1.413152
1.1463607 -4.3053159 0.077767923
1.2178804 -4.580348 0.24838645
0.98643523 -3.7125108 0.33607254
0.69399337 -2.6137256 -0.42831757
1.2676414 -4.777567 0.60690933
0.84809969 -3.1986236 -0.40631239
1.3583172 -5.1229183 0.83942734
1.0910045 -4.1176445 -0.37267796
1.3552392 -5.1185214 1.0292237
1.214327 -4.5895557 -0.24880514
1.353409 -5.1188297 1.222384
1.1718066 -4.4351101 -0.080071641
1.3472094 -5.0989831 1.413152
1.134372 -4.3208962 0.077977352
1.2054299 -4.5980951 0.24911915
0.9719554 -3.7101495 0.33554961
0.68286447 -2.6084882 -0.42706609
1.2504545 -4.7800423 0.60666559
0.83893747 -3.2092468 -0.40728735
1.344025 -5.1450636 0.84224316
1.3363722 -5.1194217 1.0284605
1.1882166 -4.5551148 -0.2467117
1.3384819 -5.1348372 1.2250834
1.1618628 -4.4604598 -0.080455594
1.3314315 -5.1151039 1.4162578
1.1538528 -4.4584075 0.080385784
1.1906756 -4.6040008 0.24922382
0.95899864 -3.7135196 0.33554961
0.67375498 -2.6108559 -0.42706609
1.2322744 -4.7786115 0.60593438
0.82773 -3.2121557 -0.40728735
1.3294206 -5.1590567 0.8438075
1.3224079 -5.1392658 1.0315134
1.1718117 -4.5573003 -0.24660703
1.3224897 -5.1470278 1.2268831
1.1512588 -4.483857 -0.080804642
1.3163836 -5.1269756 1.4183284
1.1471797 -4.4972858 0.081014071
1.1728071 -4.604463 0.24901448
0.94504731 -3.7129829 0.33520099
0.66268963 -2.6055342 -0.42581461
1.222432 -4.8098188 0.60934672
0.8067397 -3.1765452 -0.40241257
1.3124464 -5.1715533 0.84505898
1.0478256 -4.1288435 -0.37267796
1.304943 -5.1457536 1.031895
1.1544247 -4.5555548 -0.24629301
1.3049935 -5.1535019 1.227333
1.1498259 -4.5440676 -0.081816881
1.3023192 -5.150495 1.4235047
1.1304993 -4.4973841 0.080944261
0.93062672 -3.7104615 0.33467805
0.65503127 -2.6135799 -0.42675322
1.2133512 -4.8448665 0.61324654
0.79853808 -3.1908961 -0.403875
1.2943864 -5.1761031 0.84505898
1.0334069 -4.1324759 -0.37267796
1.2912566 -5.1674196 1.0353296
1.1394836 -4.5634322 -0.24650235
1.2898272 -5.1693704 1.2300324
1.148954 -4.6082027 -0.082898931
1.2838303 -5.149162 1.4219518
1.1320996 -4.5711808 0.082200834
0.99845888 -4.0345851 0.21782225
0.91432345 -3.7001479 0.33345787
0.64495711 -2.6120149 -0.42612748
0.78264298 -3.1743903 -0.40143762
1.2786732 -5.1901799 0.84662332
1.2769655 -5.1871461 1.0383826
1.1307036 -4.5964736 -0.24807243
1.2768917 -5.1946577 1.2349813
1.1314304 -4.6063593 -0.082794216
1.2672309 -5.1592402 1.4235047
0.99453652 -4.0828495 0.2202297
0.90045956 -3.6994452 0.33310925
0.63396819 -2.6065726 -0.42487601
0.77811599 -3.2041092 -0.40484996
1.2656504 -5.2116679 0.84943915
1.2579259 -5.187756 1.0376193
1.261044 -5.2085534 1.2372308
1.2537601 -5.1863834 1.4297164
1.0956895 -4.5638754 0.24597899
0.89032722 -3.7141909 0.33415512
0.62302514 -2.6010855 -0.42362453
0.76046266 -3.1797768 -0.40143762
1.2483767 -5.2239568 0.85069062
0.97340474 -4.0733092 -0.36640274
1.2443694 -5.2112111 1.0414355
0.97853034 -4.1010899 -0.22096241
1.2455667 -5.2242971 1.2399302
1.0950738 -4.5966386 -0.082480073
1.2347538 -5.1869696 1.4286811
1.0668082 -4.5129162 0.080944261
0.88494005 -3.7523346 0.33729272
0.61620606 -2.6148878 -0.42550174
0.74880309 -3.1825427 -0.40143762
1.2328486 -5.2398199 0.85256783
0.95208507 -4.0496965 -0.36396238
1.224812 -5.2138257 1.0410539
1.2263877 -5.2246288 -0.28125343
1.2228504 -5.2136493 1.236331
1.0763937 -4.5928336 -0.082340454
1.224544 -5.2290796 1.4390339
0.91825397 -3.9490835 0.21248398
0.60975291 -2.6285685 -0.42737896
0.73948098 -3.1928727 -0.40241257
1.2132136 -5.2383181 0.85162923
0.94423208 -4.0801704 -0.36640274
1.2127972 -5.2448483 1.0463965
1.209466 -5.2387728 1.2412799
1.2041141 -5.2239097 1.4364457
0.91607893 -3.9998107 0.071624676
1.05595 -4.6142204 0.24807243
0.60321173 -2.6422359 -0.42925617
0.72303752 -3.1722091 -0.39948771
1.1993109 -5.2617809 0.85475792
0.91671103 -4.0251622 -0.3611734
1.193175 -5.2433068 1.0452517
1.1941941 -5.2562649 1.2444292
0.90618472 -3.9918116 -0.071450152
1.184646 -5.2184544 1.4338575
1.0063026 -4.4653169 0.079897117
1.0420307 -4.6276206 0.24859579
0.59052147 -2.6289066 -0.42675322
0.71369758 -3.1824615 -0.40046266
1.1826656 -5.2736452 0.85600939
0.89873421 -4.01084 -0.35960459
1.1748651 -5.2474398 1.0452517
0.90127143 -4.0287536 -0.21635684
1.175839 -5.2604014 1.2444292
1.0304189 -4.6136116 -0.082514978
1.1671945 -5.2303032 1.4359281
0.98897839 -4.4609932 0.079757497
1.0298103 -4.6528595 0.24974718
0.85827583 -3.8810477 0.34775141
0.5847509 -2.6463827 -0.42925617
0.70857109 -3.2120722 -0.403875
1.1676542 -5.2931734 0.85851234
0.88129745 -3.9983872 -0.3582101
1.1590745 -5.2630128 1.0475414
1.1627638 -5.2841556 -0.28355621
1.1608173 -5.2797 1.2480284
1.1649098 -5.3027261 -0.094766567
1.1535743 -5.2511267 1.4405868
0.9721226 -4.4585568 0.079652783
1.1422756 -5.247749 0.28146277
0.84472322 -3.88402 0.34775141
0.57550974 -2.6484078 -0.42925617
0.68557065 -3.1602069 -0.39705032
1.1495013 -5.3032091 0.85945095
0.86606892 -3.9955976 -0.35768717
1.1427739 -5.2766205 1.0494495
1.1489581 -5.3096551 -0.2847076
1.1407334 -5.2761009 1.2462288
1.1501929 -5.3243516 -0.09508071
1.1412493 -5.2874217 1.4493867
0.95655341 -4.461923 0.079652783
1.1399267 -5.3218146 0.28523096
0.56626156 -2.6504005 -0.42925617
0.67950424 -3.1858779 -0.39997519
1.1306727 -5.3011961 0.85851234
0.84962484 -3.9869046 -0.3566413
1.1317074 -5.3151411 1.0563186
1.1324949 -5.323401 -0.28523096
1.1255507 -5.2952999 1.2498281
1.1278617 -5.3107295 -0.094766567
1.1225053 -5.2855081 1.4478337
0.93849849 -4.4534945 0.079443354
1.1216471 -5.3318203 0.28554498
0.56512612 -2.6910252 -0.43551355
0.66430631 -3.1688018 -0.3975378
1.11488 -5.3227054 0.86132816
0.83243511 -3.9742455 -0.35524681
1.1103322 -5.3056078 1.0536473
1.1143147 -5.3292767 -0.28533563
1.1082554 -5.3049192 1.2511778
1.1125856 -5.3302941 -0.095045805
1.102731 -5.2876956 1.4473161
0.92173064 -4.4508689 0.07933864
1.1059834 -5.3452897 0.28606834
0.84430525 -4.0877733 0.36518256
0.54774463 -2.6542892 -0.42925617
0.65644521 -3.1866555 -0.39948771
1.0970899 -5.3304342 0.8619539
0.81855734 -3.9771271 -0.35524681
1.0953643 -5.3267584 1.0570818
1.0997247 -5.3526979 -0.28638235
1.0944332 -5.3316627 1.2565766
1.0971866 -5.3498167 -0.095325044
1.090624 -5.3178178 1.454563
0.90698594 -4.4579783 0.079408449
1.0893073 -5.3589039 0.2865917
0.83953982 -4.1375579 0.36936604
0.5463256 -2.6949049 -0.43551355
0.63901808 -3.157797 -0.39558789
1.0804339 -5.3439123 0.86351825
0.80466959 -3.9799601 -0.35524681
1.0740427 -5.3170788 1.0544105
1.0810336 -5.356504 -0.28638235
1.0758155 -5.3354505 1.2565766
1.076531 -5.3438124 -0.09515052
1.0735808 -5.3291676 1.4566336
0.891811 -4.4630781 0.079443354
1.069268 -5.3609017 0.28648702
0.82158753 -4.1228775 0.36779723
0.62953915 -3.1677965 -0.39656284
1.0665573 -5.3668407 0.86664694
1.0638802 -5.3631616 1.0628061
1.0650473 -5.373959 -0.28711506
1.0579418 -5.3429966 1.2574764
1.0562886 -5.3444378 1.4597394
0.88084634 -4.4897113 0.079862212
1.0545581 -5.3800978 0.2873244
0.80910377 -4.1354969 0.36866879
0.61847764 -3.1699747 -0.39656284
1.0476355 -5.3745915 0.86727267
0.76314201 -3.9150797 -0.34897159
1.0436517 -5.3591343 1.0612796
1.0356019 -5.32275 -0.28418424
1.0415158 -5.3581345 1.2601758
1.0449165 -5.3806431 -0.095674092
1.0379946 -5.3499888 1.4602571
0.86854051 -4.5145102 0.080246165
1.0367169 -5.3937336 0.28784776
0.79394098 -4.1384346 0.36866879
0.60573598 -3.166371 -0.39583163
1.0292395 -5.3801559 0.86758554
0.74803936 -3.9139365 -0.34862297
1.0254753 -5.3706372 1.0628061
0.92327236 -4.8399632 -0.25822561
1.0251537 -5.3791445 1.2642249
1.0296767 -5.4080096 -0.09609295
1.0194619 -5.3594508 1.46181
1.0196968 -5.4017604 0.095953331
1.0197336 -5.4071328 0.28837112
0.78317585 -4.1607608 0.37041191
0.59870759 -3.1899274 -0.39851275
1.0133681 -5.3992476 0.87008849
0.74832569 -3.9909378 -0.35524681
1.0078065 -5.3799731 1.063951
1.0074067 -5.3830301 -0.28701038
1.0088777 -5.396099 1.2673742
1.0122616 -5.4194337 -0.096232569
1.0028739 -5.3743712 1.4649158
1.0041116 -5.4229834 0.096267474
1.003396 -5.424407 0.28910382
0.77371134 -4.1908992 0.37285227
0.99711658 -5.4115802 0.67564364
0.58469407 -3.1763795 -0.39656284
0.99737589 -5.418294 0.87259145
0.73439016 -3.9935256 -0.35524681
0.98973023 -5.3873201 1.0647142
0.99005245 -5.3943716 -0.28742907
0.99179293 -5.4091717 1.2696238
0.99622044 -5.4386699 -0.096511808
0.98713481 -5.3890687 1.4680216
0.98803338 -5.4421956 0.096546712
0.98338591 -5.4219809 0.28878981
0.75623866 -4.1778902 0.37145778
0.98104371 -5.4306556 0.67759355
0.5771284 -3.1979365 -0.39900023
0.9805614 -5.4334063 0.87446866
0.72044568 -3.9960648 -0.35524681
0.97544294 -5.4158602 1.0696752
0.97086286 -5.3958289 -0.2873244
0.97359487 -5.4164367 1.2705236
0.97652301 -5.4381778 -0.096441998
0.969764 -5.405961 1.4716451
0.97183324 -5.4613614 0.096825951
0.96664976 -5.4432472 0.28973185
0.74373867 -4.192275 0.37250364
0.96519586 -5.4516392 0.6797872
0.96330949 -5.4465219 0.876033
0.95926214 -5.4346991 1.0727282
0.96797573 -5.4896632 -0.29213931
0.95637235 -5.4293982 1.2727731
0.95822739 -5.4454922 -0.096511808
0.95517983 -5.4281733 1.4768215
0.95345054 -5.4686605 0.096895761
0.94901282 -5.454459 0.29015054
0.74206518 -4.2694381 0.37912748
0.94785645 -5.4647546 0.68100589
0.44769449 -2.5838079 -0.32197881
0.94435125 -5.4558553 0.87697161
0.94128916 -5.4438181 1.073873
0.94039662 -5.4499867 1.2768222
0.94498779 -5.4823047 -0.097105189
0.93265559 -5.4164071 1.4726804
0.93166287 -5.456186 0.096616522
0.93461409 -5.4792331 0.29130193
0.73384405 -4.3112852 0.38261371
0.93010479 -5.4758582 0.68198085
0.55025017 -3.2429471 -0.403875
0.92790604 -5.4686946 0.87853596
0.43616974 -2.5733272 -0.22834805
0.92228096 -5.4470706 1.073873
0.44732697 -2.6447558 -0.14057438
0.92396411 -5.4686082 1.2804214
0.91726107 -5.4347094 1.4768215
0.91623826 -5.4811005 0.097000475
0.91583987 -5.490502 0.29172062
0.71879038 -4.3138205 0.38261371
0.91163598 -5.4829879 0.68246832
0.52786858 -3.178267 -0.39558789
0.91076583 -5.4895975 0.88135178
0.66458167 -4.0057343 -0.35524681
0.90518744 -5.4618778 1.0761627
0.42569656 -2.5714245 -0.13659685
0.90741303 -5.4871811 1.2840206
0.42433938 -2.5687909 -0.045446066
0.90016641 -5.4551895 1.4814802
0.43223762 -2.5857225 0.04576021
0.92163393 -5.6342489 0.099653241
0.89730559 -5.4915377 0.29161595
0.89312872 -5.4900554 0.6829558
0.52186562 -3.2114405 -0.39948771
0.89349705 -5.5044423 0.88322899
0.8895729 -5.4863216 1.0803605
0.88293128 -5.4513824 -0.28941784
0.88700874 -5.4826202 1.282221
0.89135476 -5.5155888 -0.097524047
0.88361241 -5.4676801 1.4840684
0.41449141 -2.5906516 0.045795114
0.88096783 -5.5123866 0.292558
0.87676656 -5.5107835 0.68514945
0.5125218 -3.2250055 -0.40095014
0.87334842 -5.5016749 0.88229038
0.63660041 -4.0102763 -0.35524681
0.87287632 -5.5049056 1.0834135
0.86702143 -5.4741579 -0.29046456
0.87151959 -5.5087807 1.2876198
0.8717842 -5.5166914 -0.097489142
0.86753668 -5.4898129 1.4892448
0.42094944 -2.5734012 0.045515876
0.42302663 -2.6176345 -0.046283782
0.40266457 -2.5743016 0.045480971
0.8616819 -5.5214986 0.29287201
0.8605756 -5.5334255 0.68758684
0.52015383 -3.3483919 -0.41606194
0.85661554 -5.5143006 0.88385473
0.62259805 -4.012474 -0.35524681
0.85515874 -5.5176195 1.0853216
0.85279661 -5.5087309 -0.29213931
0.85288064 -5.515641 1.2885196
0.85557439 -5.5394635 -0.09783819
0.84682059 -5.4891372 1.4882095
0.39186334 -2.563831 0.045271542
0.84638139 -5.5440695 0.29391873
0.66148993 -4.3431326 0.38435683
0.84155331 -5.5383583 0.68783057
0.49356914 -3.2520563 -0.403875
0.83935957 -5.5369338 0.88698342
0.60858811 -4.0146228 -0.35524681
0.8350117 -5.5147475 1.0841767
0.82639449 -5.4642789 -0.28962718
0.83565974 -5.5320727 1.291669
0.83742618 -5.5503256 -0.09797781
0.82880629 -5.4997009 1.4902801
0.38261628 -2.5632055 0.045236637
0.82908549 -5.5608181 0.29465143
0.64046318 -4.306001 0.3808706
0.82308978 -5.547153 0.68856179
0.82360015 -5.5572731 0.88979924
0.81920219 -5.5409344 1.0887561
0.81198381 -5.4987436 -0.29130193
0.81833451 -5.5484512 1.2948183
0.82125257 -5.5749767 -0.098361763
0.81382185 -5.5312295 1.4980446
0.37481999 -2.5724407 0.045376257
0.6305808 -4.3437014 0.3840082
0.8051441 -5.5598153 0.68978048
0.80645879 -5.5757544 0.89230219
0.80097715 -5.5515327 1.0902826
0.7865176 -5.458054 -0.28899915
0.79896181 -5.5512739 1.2948183
0.80264084 -5.5837475 -0.098466477
0.79670559 -5.5493346 1.5021857
0.36640104 -2.5776929 0.045446066
0.79052449 -5.5684481 0.29475611
0.69670633 -4.9199341 0.43473284
0.78850826 -5.5822477 0.69221787
0.78588709 -5.5707115 0.89105071
0.56651448 -4.0207757 -0.35524681
0.78296167 -5.5640153 1.0921907
0.78228814 -5.5733272 1.2993173
0.78425548 -5.5944365 -0.098606096
0.77883534 -5.5557723 1.503221
0.35657748 -2.5730139 0.045341352
0.67880422 -4.9044529 0.25948167
0.67980077 -4.9243098 0.43490716
0.77118402 -5.6006984 0.69416778
0.43459335 -3.1603014 -0.39168807
0.76805157 -5.5851625 0.89292793
0.76460199 -5.5744946 1.0937172
0.74947857 -5.471327 -0.28941784
0.76494193 -5.59147 1.3029165
0.76363968 -5.5892149 -0.098466477
0.75977309 -5.5681602 1.5058092
0.34572071 -2.560371 0.045097018
0.66393545 -4.9365258 0.43577871
0.75347664 -5.6171285 0.69587395
0.43673776 -3.260175 -0.403875
0.75248526 -5.6171778 0.89762096
0.74643868 -5.5868595 1.0956253
0.70501708 -5.2838573 -0.27936933
0.74773596 -5.611491 1.3069656
0.74940064 -5.6314908 -0.099164573
0.74385254 -5.5897987 1.5109856
0.33678124 -2.5615622 0.045097018
0.64239332 -4.8992832 0.25895831
0.64747576 -4.9447398 0.43630165
0.73412166 -5.6216928 0.69611769
0.41251987 -3.1632584 -0.39168807
0.73240242 -5.6238157 0.8982467
0.72794515 -5.5972184 1.0971517
0.72914625 -5.6217972 1.3087652
0.72999536 -5.6360556 -0.099199478
0.72509458 -5.6058988 1.5146091
0.32739038 -2.5627793 0.045097018
0.62301303 -4.8836649 0.25801626
0.63588541 -4.9984677 0.44083375
0.71451151 -5.6322229 0.69709264
0.71425677 -5.6380963 0.90012391
0.70988604 -5.6193266 1.1009679
0.7080493 -5.6205649 1.3078654
0.72730373 -5.7815455 -0.10171262
0.70841538 -5.6313966 1.5208207
0.31868909 -2.565891 0.045131923
0.60682768 -4.8997903 0.25874897
0.61794455 -4.9967023 0.44048512
0.69849133 -5.6642353 0.70074872
0.69455164 -5.6485188 0.90137539
0.69289847 -5.6432052 1.1051657
0.36288658 -2.9597445 -0.15627517
0.69032009 -5.6384766 1.3114646
0.70080871 -5.7324411 -0.1008051
0.68753643 -5.6320377 1.5203031
0.36156682 -2.9575268 -0.052008171
0.30949098 -2.5650025 0.045097018
0.59344293 -4.9255707 0.26000503
0.60121194 -5.0047633 0.44100806
0.6806038 -5.682407 0.70269863
0.37881947 -3.167471 -0.39168807
0.67600157 -5.660716 0.90293973
0.67342824 -5.6475389 1.1055473
0.67339468 -5.6640733 1.3168635
0.67419399 -5.6792514 -0.099827765
0.66680653 -5.6170212 1.5156443
0.29890727 -2.5521643 0.044852685
0.58627639 -5.0286003 0.44292548
0.66213952 -5.696579 0.70416107
0.36776062 -3.168774 -0.39168807
0.65851173 -5.6826637 0.90606842
0.65461315 -5.6576562 1.1070738
0.65119409 -5.6367224 -0.2973729
0.65495912 -5.6780048 1.3195629
0.65756878 -5.7093821 -0.10031643
0.65338443 -5.6730512 1.5301382
0.28954538 -2.5492183 0.044782875
0.56110263 -4.9554907 0.26136577
0.57006263 -5.0424948 0.44397135
0.64225071 -5.6988556 0.70416107
0.3566973 -3.1700384 -0.39168807
0.64120987 -5.698557 0.9082585
0.63661099 -5.6755149 1.1101267
0.63773377 -5.7034965 1.3249617
0.63874463 -5.7215794 -0.10049096
0.63237327 -5.6734879 1.5296206
0.28108266 -2.5541889 0.044852685
0.54444841 -4.9553388 0.26126109
0.55202375 -5.0404929 0.44362273
0.62364661 -5.712903 0.7056235
0.62245612 -5.7205068 0.91138719
0.61955226 -5.7030755 1.1150878
0.61699534 -5.688786 -0.29988503
0.61656225 -5.6940633 1.3222623
0.62027318 -5.737691 -0.10073529
0.61650391 -5.712154 1.5394557
0.27127323 -2.5552493 0.044852685
0.52773285 -4.9792403 0.26241248
0.53538651 -5.0683331 0.44588878
0.60357668 -5.7330231 0.70781715
0.60169172 -5.7247143 0.91170006
0.59908125 -5.7190804 1.1177591
0.59631289 -5.7118944 1.3258615
0.59823751 -5.7400303 -0.10073529
0.59196734 -5.6894998 1.5327264
0.26276043 -2.5601592 0.044922494
0.51157026 -4.9929732 0.26304052
0.51829861 -5.0761173 0.44641171
0.58516863 -5.7508942 0.70976706
0.58230395 -5.7326755 0.91263867
0.58089374 -5.7387162 1.1211937
0.52026028 -5.1486796 -0.27120493
0.57832681 -5.7333302 1.3303605
0.58020087 -5.7619799 -0.10108434
0.57596794 -5.7299748 1.5430791
0.25224444 -2.5451412 0.044643256
0.49551485 -5.0086414 0.26377322
0.50292203 -5.1016889 0.44850345
0.56625503 -5.7647553 0.71122949
0.31129368 -3.1748185 -0.39168807
0.56421726 -5.7543327 0.91576736
0.3831081 -3.9142731 -0.34409087
0.56028565 -5.734847 1.1200488
0.50228487 -5.1504642 -0.27120493
0.55982071 -5.7508306 1.3339598
0.56105127 -5.7739217 -0.10125886
0.55528195 -5.7145482 1.5384204
0.24335871 -2.5460062 0.044643256
0.4784078 -5.014317 0.26398256
0.48643052 -5.1172975 0.44972363
0.54631599 -5.768673 0.71147323
0.29722058 -3.1442653 -0.38778825
0.54598644 -5.7759332 0.91889605
0.54265688 -5.7621777 1.1250098
0.48430333 -5.1521862 -0.27120493
0.54047131 -5.7605105 1.3357594
0.54331696 -5.8017278 -0.10171262
0.53738977 -5.7492439 1.5472203
0.23447 -2.5468402 0.044643256
0.46057341 -5.0220035 0.26429658
0.47019939 -5.1368212 0.45129244
0.52761831 -5.78636 0.71342314
0.28912186 -3.1769144 -0.39168807
0.52725361 -5.7935419 0.921399
0.52307158 -5.7699026 1.1261547
0.51790638 -5.7351902 1.3294607
0.52324134 -5.8055806 -0.10174753
0.50739682 -5.629779 1.5146091
0.22575481 -2.549635 0.04467816
0.44444423 -5.0394969 0.26513395
0.4519163 -5.1344617 0.45094381
0.50949721 -5.8118966 0.716348
0.2780306 -3.1779043 -0.39168807
0.50704661 -5.8072428 0.92327621
0.34209768 -3.9180703 -0.34409087
0.50565449 -5.8029868 1.1322606
0.50369263 -5.7921616 -0.30469994
0.49855763 -5.7447289 1.3312603
0.50366308 -5.8153406 -0.10188715
0.48260033 -5.583484 1.5016681
0.21719239 -2.5543925 0.04474797
0.42908112 -5.0568639 0.26597133
0.49020553 -5.8255083 0.71781043
0.26693595 -3.1788554 -0.39168807
0.48877809 -5.820703 0.92515343
0.32242957 -3.847765 -0.33781566
0.48686759 -5.8223243 1.1356951
0.49243969 -5.9013629 -0.31035222
0.48335306 -5.8046948 1.3447574
0.48518219 -5.8389844 -0.1022711
0.45864309 -5.5195963 1.4840684
0.20697488 -2.5391904 0.044468732
0.41215958 -5.0783097 0.26701805
0.4711441 -5.8430133 0.71976034
0.46949589 -5.8480529 0.92922072
0.3089964 -3.8488671 -0.33781566
0.46560031 -5.8122464 1.1334054
0.46355274 -5.8121743 1.3461071
0.43198721 -5.4403571 1.4623276
0.19811019 -2.5398974 0.044468732
0.39578193 -5.0856223 0.26733206
0.44967683 -5.8307678 0.71805417
0.45028916 -5.8654127 0.93172367
0.29555946 -3.8499222 -0.33781566
0.44605863 -5.8236239 1.1353135
0.35535215 -4.6500418 -0.24440892
0.44503943 -5.8370742 1.3515059
0.44637867 -5.8681504 -0.10272486
0.41233214 -5.4205705 1.4566336
0.18954018 -2.5445618 0.044538541
0.37861944 -5.0949399 0.26775075
0.35543574 -4.8285758 0.59447866
0.42966798 -5.8649787 0.9314108
0.28211893 -3.8509305 -0.33781566
0.4280173 -5.8564739 1.1414194
0.42509605 -5.8305012 -0.30637469
0.42536835 -5.8483102 1.3537554
0.4271947 -5.8876229 -0.10303901
0.39480635 -5.4412447 1.46181
0.18063631 -2.5512235 0.044643256
0.35947463 -5.1023331 0.26806477
0.41098798 -5.8774019 0.72341642
0.40974257 -5.8743252 0.93266228
0.26800267 -3.8519386 -0.33781566
0.40695714 -5.863879 1.1425643
0.40500429 -5.8653828 1.3573547
0.3765587 -5.4812667 1.4721627
0.17092417 -2.5398674 0.044433827
0.34389028 -5.1234249 0.26911149
0.31790596 -4.761171 0.41747601
0.39152199 -5.8946466 0.72536633
0.38964184 -5.8974694 0.93610384
0.25192827 -3.8130896 -0.33432943
0.38609865 -5.8593868 1.1414194
0.38401801 -5.8589826 1.3555551
0.38609668 -5.9064926 -0.10331825
0.35578942 -5.4574869 1.4654334
0.16154812 -2.532466 0.044294208
0.37710469 -5.9278657 0.31129427
0.36171972 -5.7493704 0.70732967
0.37094882 -5.9125295 0.93829392
0.2391142 -3.8218997 -0.33502668
0.36759918 -5.8920499 1.1475253
0.37093576 -5.9622744 -0.31307369
0.3611507 -5.8213873 1.346557
0.36671154 -5.9277631 -0.10366729
0.32864872 -5.3275789 1.430234
0.15294785 -2.5370067 0.044364017
0.35629044 -5.9271523 0.3111896
0.35118449 -5.9111074 0.7270725
0.3519433 -5.9413952 0.94267409
0.22389235 -3.7908883 -0.33223769
0.34795311 -5.9089761 1.1505782
0.35012128 -5.9635328 -0.31307369
0.34116969 -5.8284487 1.3479067
0.34753211 -5.954959 -0.10412106
0.31072329 -5.3402651 1.4333399
0.14409112 -2.5375251 0.044364017
0.33638882 -5.9423183 0.3119223
0.33187847 -5.9360812 0.72999737
0.33131174 -5.9445599 0.94298696
0.21021622 -3.7836895 -0.33154045
0.32851903 -5.9317174 1.154776
0.33326605 -6.0365107 -0.31684188
0.32114378 -5.8354415 1.3492564
0.32718145 -5.9641226 -0.10426068
0.29248353 -5.3316214 1.4307517
0.13523262 -2.5380126 0.044364017
0.31617382 -5.9534286 0.31244566
0.31374971 -5.9469813 0.52101703
0.31261014 -5.9649568 0.73340971
0.31066237 -5.9476528 0.94329982
0.19845751 -3.812256 -0.33398081
0.30547186 -5.8877338 1.1459988
0.30847977 -5.9658318 -0.31307369
0.30277815 -5.8754501 1.3582545
0.30636078 -5.9652283 -0.10426068
0.29012239 -5.6683604 1.5208207
0.12573128 -2.5344967 0.044294208
0.29468769 -5.9825265 0.31391107
0.2301225 -4.6884253 0.41067786
0.29035888 -5.9581315 0.73243475
0.28972332 -5.966509 0.94611564
0.1835207 -3.7930571 -0.33223769
0.28795521 -5.9731359 1.1624084
0.28661183 -5.9669224 -0.31307369
0.26773372 -5.5942761 1.2930187
0.28525702 -5.9822905 -0.10453991
0.27640722 -5.7966961 1.5549848
0.11623872 -2.5209372 0.044049874
0.27425947 -5.9934945 0.31443443
0.21420908 -4.6991516 0.41154942
0.2683932 -5.9333289 0.72926615
0.26891594 -5.9912115 0.94987007
0.17099405 -3.8095977 -0.33363218
0.26631412 -5.956453 1.1589738
0.26809201 -6.0197638 -0.31579516
0.26525591 -6.0032273 -0.10488896
0.25371543 -5.7648605 1.546185
0.10760856 -2.5253233 0.044119683
0.25506026 -6.0103348 0.3152718
0.24825985 -5.9481132 0.73097232
0.24601173 -5.9190444 0.93829392
0.1596724 -3.8579478 -0.33781566
0.24729914 -6.0005013 1.1673694
0.21848768 -5.3467782 1.2354312
0.24640843 -6.0300482 -0.10534273
0.23491122 -5.7733912 1.5482555
0.099076683 -2.52167 0.044049874
0.23438959 -6.0191715 0.31569049
0.18047589 -4.6766416 0.40945768
0.22815281 -5.9389856 0.72975363
0.20911838 -5.4934945 0.87071423
0.14620468 -3.8584817 -0.33781566
0.20090214 -5.351368 1.236331
0.22588084 -6.0448597 -0.10558706
0.21540311 -5.7915506 1.5529143
0.090416873 -2.5259973 0.044119683
0.2145702 -6.0239076 0.31589983
0.20790545 -5.953633 0.7314598
0.19048857 -5.4823127 0.86883702
0.13340869 -3.8589453 -0.33781566
0.19497644 -5.6684896 1.1024944
0.19654421 -5.7727208 1.3335099
0.2059702 -6.0495726 -0.10565687
0.1931227 -5.7014881 1.5285853
0.082948536 -2.5542642 0.044608351
0.19431108 -6.0485747 0.31715589
0.19160982 -6.0634153 0.74486543
0.17172079 -5.4947907 0.87071423
0.11993764 -3.8593875 -0.33781566
0.16855519 -5.4238166 1.0547921
0.15367021 -4.9727985 -0.26073773
0.17781906 -5.7869756 1.3366592
0.18448559 -6.0382622 -0.10544744
0.17497938 -5.7600563 1.5441144
0.080207733 -2.7844207 0.048622404
0.17416816 -6.0831556 0.31893532
0.10646513 -3.8597826 -0.33781566
0.14792172 -5.3969227 1.0494495
0.13816161 -5.0731543 -0.26597133
0.14917514 -5.5129167 1.273223
0.15204802 -5.619087 -0.098117429
0.1546643 -5.7529074 1.5420439
0.071890927 -2.8206542 0.049250691
0.062260207 -2.5116315 0.21980678
0.062670045 -2.5461023 0.31271674
0.11895006 -4.9737502 -0.26073773
0.13210304 -5.6055895 -0.097873095
0.13413019 -5.734099 1.5368675
0.053623341 -2.5179728 0.13199128
0.051346562 -2.5141302 0.39828215
0.049883432 -2.4849794 0.48312838
0.098983246 -4.9741876 -0.26073773
0.11133458 -5.6444022 1.3033664
0.11097256 -5.6260485 -0.098222143
0.11709633 -5.9895275 1.6051957
0.044542919 -2.5518621 0.22329301
0.043730238 -2.5306149 0.31076683
0.042469974 -2.5083689 0.39734354
0.082487702 -4.9744885 -0.26073773
0.091721303 -5.590183 1.2907691
0.096436409 -6.0053525 1.6093368
0.076832669 -6.1138277 1.6383246
0.055454002 -5.6735341 1.102876
0.05214156 -5.5322275 1.2772721
0.023140258 -2.5015119 -0.043665921
0.051230517 -5.6446381 1.5125385
0.033399847 -5.4675614 1.0628061
0.033121656 -5.7506367 1.3276611
0.031926108 -5.5430637 -0.096756141
0.034191732 -6.1219424 1.6403951
0.016195108 -5.7994308 1.1272995
0.0065046347 -2.4845818 -0.13021186
0.015061149 -6.1638466 1.4230404
0.012527102 -5.5211448 -0.096372188
0.012170542 -5.810997 1.5570554
-0.0043454589 -6.2244104 0.98585
-0.0061369056 -5.8603111 1.1391297
-0.005834307 -4.7754429 -0.25027054
-0.0082880248 -5.9358566 1.3704018
-0.008653766 -5.509154 -0.096162759
-0.0091491509 -5.8245255 1.5606788
-0.020724416 -5.6543631 0.494696
-0.026426404 -6.0564473 0.95925614
-0.011023245 -2.5263257 -0.22102696
-0.028072055 -6.1861508 1.2024783
-0.022917798 -4.8632718 -0.25487611
-0.030881417 -5.8978622 1.5803491
-0.038704413 -5.6860648 0.29800093
-0.04456775 -6.2280498 0.5448977
-0.041097679 -5.2326114 0.8287898
-0.049902007 -6.215463 1.2082026
-0.039549593 -4.8212212 -0.252678
-0.04827461 -5.7622223 1.3303605
-0.053214827 -6.2222666 1.6673123
-0.055039059 -5.4368932 0.094906186
-0.068426987 -6.2228882 0.76412078
-0.059295423 -5.2265104 0.82785119
-0.066079764 -5.7362487 1.1150878
-0.056098297 -4.7970883 -0.25142193
-0.073661312 -6.2063002 1.4329382
-0.075097116 -6.2355649 1.6709358
-0.074316466 -5.4586626 0.095290139
-0.087506555 -6.266788 0.32846046
-0.09080988 -6.2682637 0.76972677
-0.083750866 -5.7121754 0.90481695
-0.086426743 -5.7575764 1.1192856
-0.072630637 -4.782884 -0.25068923
-0.080719384 -5.2551322 1.213386
-0.097920756 -6.2333162 1.6704181
-0.093507108 -5.4663675 0.095429758
-0.10835651 -6.2704573 0.32866981
-0.10701592 -5.9523299 0.73097232
-0.11409812 -6.2253418 0.98616287
-0.1067055 -5.7670542 1.1211937
-0.089176388 -4.7746137 -0.25027054
-0.098879074 -5.2450765 1.2111365
-0.055538529 -2.919027 -0.050961027
-0.11841755 -6.1672656 1.6528184
-0.1126289 -5.4680071 0.095464663
-0.13003643 -6.2600567 0.32814645
-0.12861752 -6.0893762 0.53287021
-0.13452544 -6.2654924 0.76948303
-0.12867126 -5.9444914 0.94173548
-0.1268788 -5.7686094 1.1215753
-0.11784018 -5.2739232 1.217885
-0.12416194 -5.5137621 -0.096267474
-0.13849826 -6.1030799 1.6357364
-0.13166696 -5.4655815 0.095429758
-0.14931953 -6.1537411 0.32259883
-0.15511841 -6.3020113 0.55152154
-0.14539756 -5.8244314 0.71537305
-0.15840572 -6.3014363 0.99836476
-0.14796465 -5.8054211 1.128826
