-0.9041873216629028 -1.114588141441345 -0.1762230694293976
-1.669571042060852 -2.05660605430603 0.4195572435855866
-1.693467974662781 -2.084555149078369 -0.2349718809127808
-1.667824506759644 -2.052257537841797 0.5140394568443298
-0.7687000036239624 -0.9452108144760132 -0.06384986639022827
-1.669216871261597 -2.051043510437012 0.610517144203186
-0.7587704658508301 -0.932003915309906 -0.02097779326140881
-1.677778840065002 -2.05936074256897 0.7117523550987244
-0.8703490495681763 -1.062601804733276 -0.3680406808853149
-1.699917078018189 -2.073937177658081 0.04680735245347023
-0.8723408579826355 -1.063896656036377 -0.3176308870315552
-1.68879508972168 -2.058168888092041 0.1395276635885239
-0.8845695853233337 -1.07727587223053 -0.2709487676620483
-1.695869326591492 -2.064584970474243 0.2337516993284226
-0.895616352558136 -1.089565515518189 -0.2233884185552597
-1.682266354560852 -2.045111894607544 0.325147420167923
-0.909423828125 -1.105182886123657 -0.1757355928421021
-1.678865313529968 -2.038800477981567 0.4183057546615601
-1.709246635437012 -2.074219465255737 -0.2351461946964264
-1.69210147857666 -2.052683115005493 0.5170924067497253
-1.70053231716156 -2.061444044113159 -0.1400510221719742
-1.679773211479187 -2.034832000732422 0.6091674566268921
-0.7767183184623718 -0.9405611753463745 -0.0212919358164072
-1.692114949226379 -2.047597646713257 0.7117523550987244
-0.8802152276039124 -1.059471607208252 -0.3690759539604187
-1.700291752815247 -2.045104503631592 0.04642340168356895
-0.8859773874282837 -1.065272092819214 -0.3198803961277008
-1.708233118057251 -2.052469491958618 0.1399463415145874
-0.8933252096176147 -1.072582840919495 -0.2713303864002228
-1.703864574432373 -2.045041799545288 0.2328801453113556
-0.9082610011100769 -1.089355230331421 -0.224639892578125
-1.705404996871948 -2.043987274169922 0.3268535733222961
-0.9260212779045105 -1.109475135803223 -0.1774417608976364
-1.69052517414093 -2.023998022079468 0.417680025100708
-1.707074880599976 -2.042362928390503 -0.2328801453113556
-1.70513117313385 -2.039314031600952 0.5167107582092285
-1.734107494354248 -2.072498798370361 -0.1416210979223251
-1.697691202163696 -2.027537822723389 0.610517144203186
-0.7832657098770142 -0.9351157546043396 -0.0212919358164072
-1.701404571533203 -2.029812335968018 0.7096818089485168
-0.8975491523742676 -1.065119028091431 -0.3732170760631561
-1.713238596916199 -2.031655788421631 0.04638849571347237
-0.8959058523178101 -1.062039971351624 -0.3207802176475525
-1.727673768997192 -2.046598434448242 0.1403650343418121
-0.8969905972480774 -1.061820864677429 -0.2701855301856995
-1.719386100769043 -2.034618616104126 0.2330544590950012
-0.9107417464256287 -1.07695460319519 -0.2233884185552597
-1.723480105400085 -2.036577701568604 0.3275848031044006
-0.95041823387146 -1.122679352760315 -0.1806103736162186
-1.709721446037293 -2.018175601959229 0.4189314842224121
-1.723868370056152 -2.033435106277466 -0.2332287728786469
-1.718056797981262 -2.0258629322052 0.5163291692733765
-1.745949149131775 -2.057296276092529 -0.1414117515087128
-1.713066101074219 -2.0171217918396 0.6109670400619507
-1.72973644733429 -2.036030769348145 -0.04663283005356789
-1.71553373336792 -2.017884969711304 0.7096818089485168
-0.9097979068756104 -1.064860105514526 -0.3752876222133637
-1.721829891204834 -2.013867616653442 0.04624887555837631
-0.8955142498016357 -1.047031402587891 -0.3180807828903198
-1.741564393043518 -2.034791231155396 0.1403650343418121
-0.9067515730857849 -1.058672904968262 -0.2709487676620483
-1.739676952362061 -2.030433177947998 0.2339260131120682
-0.9180511832237244 -1.070730447769165 -0.2233884185552597
-1.729546785354614 -2.015759944915772 0.326122373342514
-0.9464019536972046 -1.102627277374268 -0.1784167140722275
-1.733715772628784 -2.018479347229004 0.4214344620704651
-1.74286425113678 -2.027697801589966 -0.2339260131120682
-1.721566677093506 -2.002212762832642 0.513276219367981
-1.75079345703125 -2.034766674041748 -0.1406790465116501
-1.733114123344421 -2.012798309326172 0.6132165789604187
-1.761825919151306 -2.045421361923218 -0.04712149873375893
-1.736796855926514 -2.014940738677979 0.7127876281738281
-0.9222702383995056 -1.064322471618652 -0.3773581683635712
-1.743707656860352 -2.010862827301025 0.04645830765366554
-0.9155715107917786 -1.055474758148193 -0.3225798010826111
-1.755727291107178 -2.022583246231079 0.1403650343418121
-0.9411576986312866 -1.083441734313965 -0.2789627611637116
-1.75511646270752 -2.019742488861084 0.2341003268957138
-0.9293925166130066 -1.068766951560974 -0.224327027797699
-1.742274045944214 -2.00213885307312 0.3258786201477051
-1.760870933532715 -2.022796392440796 -0.3292909562587738
-1.747765064239502 -2.00632643699646 0.4214344620704651
-1.766142249107361 -2.025994062423706 -0.2351461946964264
-1.743244767189026 -1.999023199081421 0.5155659317970276
-1.766269207000732 -2.023999214172363 -0.1407837271690369
-1.7407146692276 -1.993310809135437 0.6109670400619507
-1.769484639167786 -2.02554202079773 -0.04694697260856628
-1.755907297134399 -2.008584499359131 0.7148581743240356
-0.924393355846405 -1.052214860916138 -0.3752876222133637
-1.765276670455933 -2.007958173751831 0.04666773602366447
-0.9253085255622864 -1.052145004272461 -0.3234796226024628
-1.764175772666931 -2.00458836555481 0.1399463415145874
-0.9368326663970947 -1.063750386238098 -0.2755281925201416
-1.77145779132843 -2.010738849639893 0.2344489544630051
-0.9588536024093628 -1.087605953216553 -0.2296457886695862
-1.762428164482117 -1.997676253318787 0.3270973265171051
-1.783793568611145 -2.021182298660278 -0.3309971392154694
-1.756150603294373 -1.988461017608643 0.4201829731464386
-1.775933504104614 -2.009446859359741 -0.2346232533454895
-1.767214179039002 -1.998877763748169 0.5186188220977783
-1.78397536277771 -2.016417503356934 -0.1410977393388748
-1.754242181777954 -1.981415987014771 0.6109670400619507
-1.77792763710022 -2.007462739944458 -0.04680735245347023
-1.769538521766663 -1.996585845947266 0.7148581743240356
-0.9291463494300842 -1.042850971221924 -0.3742523491382599
-1.77925169467926 -1.995585441589356 0.04666773602366447
-0.9365226030349731 -1.050022482872009 -0.3248293101787567
-1.786106944084168 -2.001163721084595 0.1405743807554245
-0.9612376093864441 -1.076219320297241 -0.2804892361164093
-1.785452127456665 -1.9983229637146 0.2344489544630051
-0.9716897010803223 -1.086775779724121 -0.2308972775936127
-1.78030252456665 -1.989761710166931 0.3278285264968872
-1.795212626457214 -2.005721569061279 -0.3305096626281738
-1.769989728927612 -1.976152420043945 0.4201829731464386
-1.784599423408508 -1.9910649061203 -0.2339260131120682
-1.786368250846863 -1.99233865737915 0.5201452970504761
-1.802010536193848 -2.008373498916626 -0.1414117515087128
-1.773239970207214 -1.974920988082886 0.612766683101654
-1.789226412773132 -1.992026209831238 -0.04673754423856735
-1.779559850692749 -1.979873299598694 0.7133052945137024
-0.9364041090011597 -1.036339044570923 -0.3742523491382599
-1.78777539730072 -1.977182388305664 0.04652811586856842
-0.9582099914550781 -1.059356451034546 -0.329778254032135
-1.808076024055481 -1.997530221939087 0.1412024050951004
-0.9766355156898499 -1.078212857246399 -0.2827789187431335
-1.799359440803528 -1.985809564590454 0.2344489544630051
-1.811220169067383 -1.99749743938446 -0.4270660877227783
-1.800819873809815 -1.98463499546051 0.3290472328662872
-1.817176580429077 -2.001959085464478 -0.3319720923900604
-1.789055347442627 -1.969596385955811 0.4214344620704651
-1.795775890350342 -1.975608944892883 -0.2335773855447769
-1.78966748714447 -1.968198657035828 0.5170924067497253
-1.818675994873047 -1.998698830604553 -0.1416210979223251
-1.794856429100037 -1.971138715744019 0.6154660582542419
-1.813862442970276 -1.991313219070435 -0.04701678454875946
-1.799845576286316 -1.974540114402771 0.7158935070037842
-0.9527522325515747 -1.039746642112732 -0.3778758049011231
-1.806941032409668 -1.970548748970032 0.04666773602366447
-0.966899573802948 -1.0540771484375 -0.3302281498908997
-1.821977138519287 -1.984858989715576 0.1412024050951004
-1.835465788841248 -1.998152852058411 -0.5273960828781128
-1.818571329116821 -1.97906756401062 0.2351461946964264
-1.82512104511261 -1.984804272651672 -0.4270660877227783
-1.802533626556397 -1.958867788314819 0.3268535733222961
-1.831108450889587 -1.989224076271057 -0.3319720923900604
-1.808115482330322 -1.962870121002197 0.4226859211921692
-1.825729012489319 -1.980603337287903 -0.2356691211462021
-1.808687925338745 -1.961429715156555 0.5186188220977783
-1.827167272567749 -1.980082273483276 -0.1412024050951004
-1.81253981590271 -1.962855458259583 0.6168158054351807
-1.833147644996643 -1.984477281570435 -0.04715640097856522
-1.812275171279907 -1.960508227348328 0.7153758406639099
-0.9676962494850159 -1.041729807853699 -0.3809816241264343
-1.825758099555969 -1.964062213897705 0.04680735245347023
-0.9753790497779846 -1.048898339271545 -0.3306780457496643
-1.830003023147583 -1.966562747955322 0.1407837271690369
-1.851699948310852 -1.988486528396606 -0.5281593203544617
-1.837432384490967 -1.972474575042725 0.2358434349298477
-1.839935779571533 -1.973780035972595 -0.4273789525032044
-1.829366207122803 -1.961068749427795 0.3292909562587738
-1.839188814163208 -1.970908761024475 -0.3309971392154694
-1.824130773544312 -1.953404784202576 0.4233116507530212
-1.844609498977661 -1.973953127861023 -0.2363663762807846
-1.827359676361084 -1.954809784889221 0.5201452970504761
-1.841967225074768 -1.96905791759491 -0.1413070857524872
-1.820531368255615 -1.94478189945221 0.6150161623954773
-1.846613049507141 -1.971953511238098 -0.04715640097856522
-1.834824562072754 -1.95799458026886 0.7189993262290955
-0.9842178821563721 -1.04479193687439 -0.3846051096916199
-1.842168688774109 -1.95417845249176 0.04687716439366341
-1.843687534332275 -1.953739047050476 0.1407837271690369
-1.862841129302979 -1.97265613079071 -0.5273960828781128
-1.853894352912903 -1.962495565414429 0.236192062497139
-1.859098434448242 -1.966628909111023 -0.4286304414272308
-1.84301233291626 -1.948249697685242 0.3292909562587738
-1.855632305145264 -1.960904598236084 -0.3314846158027649
-1.83772349357605 -1.940622448921204 0.4233116507530212
-1.863826990127564 -1.966812014579773 -0.2370636165142059
-1.846364974975586 -1.947704076766968 0.5216717720031738
-1.865290880203247 -1.966293692588806 -0.1420397907495499
-1.836747407913208 -1.93485152721405 0.6159160137176514
-1.856203675270081 -1.954663634300232 -0.04705168679356575
-1.852441430091858 -1.949338674545288 0.7205522060394287
-1.000645995140076 -1.047848343849182 -0.388228565454483
-1.862335324287415 -1.948822617530823 0.04705168679356575
-1.644193887710571 -1.71994960308075 -0.549330472946167
-1.865227103233337 -1.949803709983826 0.1414117515087128
-1.877582907676697 -1.96134877204895 -0.5277776718139648
-1.861697554588318 -1.944075226783752 0.2354948222637177
-1.87790858745575 -1.959633827209473 -0.4298819005489349
-1.864474654197693 -1.944256186485291 0.3307533860206604
-1.874433517456055 -1.95395839214325 -0.332459568977356
-1.850890278816223 -1.9280686378479 0.4233116507530212
-1.868889808654785 -1.945459008216858 -0.2360177487134934
-1.866381287574768 -1.942169070243835 0.5235798954963684
-1.884169340133667 -1.959310054779053 -0.1424584686756134
-1.853928685188294 -1.926516890525818 0.6172657012939453
-1.875012993812561 -1.947746276855469 -0.0471913069486618
-1.860306024551392 -1.931119203567505 0.7184816598892212
-1.456804871559143 -1.504356384277344 -0.5611196756362915
-1.873111963272095 -1.932901501655579 0.04698187857866287
-1.653448462486267 -1.705630660057068 -0.5484306812286377
-1.881575107574463 -1.93960165977478 0.1416210979223251
-1.896699786186218 -1.953827738761902 -0.5293041467666626
-1.878000259399414 -1.933889508247376 0.2358434349298477
-1.888790249824524 -1.943642616271973 -0.4292561709880829
-1.886306285858154 -1.939731240272522 0.332215815782547
-1.896334052085877 -1.949362277984619 -0.3339219987392426
-1.868439197540283 -1.919346451759338 0.4242502748966217
-1.885206580162048 -1.935218691825867 -0.2363663762807846
-1.873043656349182 -1.922061920166016 0.5216717720031738
-1.900590658187866 -1.948968172073364 -0.1426678150892258
-1.87686026096344 -1.923290133476257 0.6204150319099426
-1.88577127456665 -1.931746959686279 -0.04712149873375893
-1.875092267990112 -1.919466853141785 0.7189993262290955
-1.474039554595947 -1.501041293144226 -0.5637078881263733
-1.885158777236939 -1.918351531028748 0.04694697260856628
-1.65985107421875 -1.68848717212677 -0.5466310381889343
-1.900672674179077 -1.932113885879517 0.1420397907495499
-1.911671042442322 -1.941937923431397 -0.5296857953071594
-1.899843335151672 -1.929249286651611 0.2368893027305603
-1.899540185928345 -1.927595138549805 -0.4286304414272308
-1.895620465278626 -1.922274947166443 0.3314846158027649
-1.916867256164551 -1.943141937255859 -0.3351407051086426
-1.888731837272644 -1.913284540176392 0.4258146286010742
-1.90987241268158 -1.933349609375 -0.2377608716487885
-1.88365650177002 -1.906145930290222 0.520908534526825
-1.907128810882568 -1.928551435470581 -0.1421444565057755
-1.890241503715515 -1.91014039516449 0.6204150319099426
-1.907652258872986 -1.927061676979065 -0.04733092710375786
-1.897963881492615 -1.915936589241028 0.7226227521896362
-1.48720908164978 -1.493451833724976 -0.564743161201477
-1.904151439666748 -1.910809755325317 0.04708659276366234
-1.652337193489075 -1.657536387443543 -0.5403324365615845
-1.911293864250183 -1.915969729423523 0.1418304443359375
-1.933503746986389 -1.936881303787231 -0.531975507736206
-1.914673447608948 -1.917348742485046 0.2370636165142059
-1.921328902244568 -1.922670722007752 -0.4305076599121094
-1.907590508460999 -1.907590508460999 0.3312408626079559
-1.92055869102478 -1.919888496398926 -0.333434522151947
-1.907633066177368 -1.905636548995972 0.4270660877227783
-1.927553296089172 -1.924192070960999 -0.2382837980985642
-1.905256032943726 -1.901269793510437 0.5231982469558716
-1.921960234642029 -1.916600584983826 -0.142249122262001
-1.900769829750061 -1.89414644241333 0.6195151805877686
-1.928142666816711 -1.920753240585327 -0.0475054495036602
-1.918138980865479 -1.909454345703125 0.725210964679718
-1.503089785575867 -1.488470196723938 -0.5668137073516846
-1.925973176956177 -1.905909299850464 0.04729602113366127
-1.680493474006653 -1.662406444549561 -0.545731246471405
-1.921782374382019 -1.899771571159363 0.1416210979223251
-1.942788481712341 -1.919196605682373 -0.5308306217193604
-1.933682918548584 -1.909535050392151 0.2377608716487885
-1.937516808509827 -1.911985516548157 -0.4311333894729614
-1.927928686141968 -1.901195883750916 0.332459568977356
-1.935328841209412 -1.907827377319336 -0.333678275346756
-1.913854122161865 -1.885340929031372 0.4255017340183258
-1.943779349327087 -1.913483858108521 -0.2386324256658554
-1.928278207778931 -1.89756166934967 0.525869607925415
-1.942414045333862 -1.910138130187988 -0.1427724957466126
-1.91672694683075 -1.883562326431274 0.6204150319099426
-1.938651919364929 -1.9044429063797 -0.04743564128875732
-1.932801246643066 -1.897370219230652 0.7257286310195923
-1.505151748657227 -1.469842076301575 -0.5637078881263733
-1.942094206809998 -1.895210385322571 0.04736582934856415
-1.697637915611267 -1.656077146530151 -0.5475308895111084
-1.943579316139221 -1.894673824310303 0.142249122262001
-1.95613956451416 -1.90558671951294 -0.5308306217193604
-1.941257238388062 -1.890428781509399 0.2370636165142059
-1.962143182754517 -1.909433960914612 -0.433636337518692
-1.949693202972412 -1.895993828773499 0.3339219987392426
-1.959987759590149 -1.905339360237122 -0.3356281816959381
-1.928386449813843 -1.873310327529907 0.4258146286010742
-1.951372146606445 -1.894316077232361 -0.2379351705312729
-1.94570529460907 -1.888155341148377 0.527014434337616
-1.964304685592651 -1.904873609542847 -0.1434005200862885
-1.934028148651123 -1.874203681945801 0.6217647194862366
-1.951900005340576 -1.890862226486206 -0.04743564128875732
-1.94183611869812 -1.879799485206604 0.7241756916046143
-1.522078156471252 -1.466264247894287 -0.5662960410118103
-1.952068209648132 -1.879173517227173 0.04729602113366127
-1.703254461288452 -1.639078378677368 -0.545731246471405
-1.965068459510803 -1.88970685005188 0.1428771615028381
-1.976142883300781 -1.89902937412262 -0.5327386856079102
-1.958390355110169 -1.881312251091003 0.2375865578651428
-1.966544508934021 -1.887825965881348 -0.4317591190338135
-1.968283653259277 -1.88817572593689 0.3348969519138336
-1.978642463684082 -1.897449970245361 -0.3366031348705292
-1.949650287628174 -1.868341445922852 0.4276918172836304
-1.967099070549011 -1.883745789527893 -0.2382837980985642
-1.955675959587097 -1.872152447700501 0.5262511968612671
-1.981554746627808 -1.895600914955139 -0.1437145322561264
-1.950966477394104 -1.865035653114319 0.6231144070625305
-1.973399758338928 -1.88582170009613 -0.04764506965875626
-1.955983519554138 -1.867872595787048 0.7246932983398438
-1.539280533790588 -1.462255239486694 -0.5688842535018921
-1.965139627456665 -1.86549973487854 0.04729602113366127
-1.725964307785034 -1.637878894805908 -0.549330472946167
-1.984010100364685 -1.881439447402954 0.1432958543300629
-2.000752687454224 -1.895990490913391 -0.5357916355133057
-1.978708744049072 -1.87444543838501 0.2384581118822098
-1.982545018196106 -1.876767039299011 -0.4323848485946655
-1.978533387184143 -1.871660232543945 0.3344094753265381
-1.996167778968811 -1.88768208026886 -0.3373343348503113
-1.97126054763794 -1.862825393676758 0.4295690357685089
-1.990342020988464 -1.879542589187622 -0.2395039796829224
-1.968698382377625 -1.858453750610352 0.5262511968612671
-1.99183452129364 -1.878979921340942 -0.143505185842514
-1.973865270614624 -1.860727071762085 0.6262637376785278
-1.993793606758118 -1.878856062889099 -0.0478195920586586
-1.973195195198059 -1.858145117759705 0.7262462377548218
-1.552271127700806 -1.45411491394043 -0.5699195265769958
-1.986874461174011 -1.859934806823731 0.0475054495036602
-1.72597348690033 -1.615137457847595 -0.545731246471405
-1.994178891181946 -1.864814400672913 0.1430865079164505
-2.015374660491943 -1.883316993713379 -0.5361732840538025
-2.000482320785523 -1.868746280670166 0.2395039796829224
-2.001374959945679 -1.868272423744202 -0.433636337518692
-1.988648533821106 -1.855093836784363 0.3339219987392426
-2.002038478851318 -1.866931200027466 -0.3361156582832336
-1.987107634544373 -1.851711511611939 0.430194765329361
-2.003415107727051 -1.865601658821106 -0.2395039796829224
-1.984498739242554 -1.847339868545532 0.527014434337616
-2.00929069519043 -1.869109630584717 -0.1438192129135132
-1.976816296577454 -1.837614178657532 0.6231144070625305
-2.008326768875122 -1.866252303123474 -0.04785449802875519
-1.993197441101074 -1.850897192955017 0.7288344502449036
-1.572318315505981 -1.452418565750122 -0.5735430121421814
-2.005688190460205 -1.851444005966187 0.04764506965875626
-1.748664379119873 -1.61362099647522 -0.549330472946167
-2.004212617874146 -1.84813916683197 0.1428771615028381
-2.025586128234863 -1.866540431976318 -0.5354100465774536
-2.01641058921814 -1.857434630393982 0.2398526072502136
-2.020182609558106 -1.859606146812439 -0.4348878264427185
-2.010316848754883 -1.849228858947754 0.3353844285011292
-2.017945766448975 -1.85559618473053 -0.3366031348705292
-1.999986529350281 -1.837793827056885 0.430194765329361
-2.028130769729614 -1.862350463867188 -0.2408984750509262
-2.010363817214966 -1.845389127731323 0.5304490327835083
-2.028177738189697 -1.860437154769898 -0.1442378908395767
-1.995343089103699 -1.829035878181458 0.6249140501022339
-2.018357992172241 -1.849484205245972 -0.04778468981385231
-2.017468452453613 -1.847374200820923 0.7329755425453186
-1.5736004114151 -1.433875679969788 -0.5704371929168701
-2.027115345001221 -1.845826983451843 0.04785449802875519
-1.762489557266235 -1.604304552078247 -0.5502302646636963
-2.028565645217896 -1.845205545425415 0.1437145322561264
-2.044055223464966 -1.857991695404053 -0.5369365215301514
-2.029006719589233 -1.843666434288025 0.2398526072502136
-2.041568279266357 -1.853779792785645 -0.4367650151252747
-2.031678199768066 -1.84350597858429 0.3368468582630158
-2.043762445449829 -1.85382080078125 -0.3387967646121979
-2.015376806259155 -1.826791167259216 0.4308205246925354
-2.03485369682312 -1.843152165412903 -0.2402012199163437
-2.022878408432007 -1.83166241645813 0.5304490327835083
-2.04671835899353 -1.851948976516724 -0.1446565836668015
-2.01352858543396 -1.820639729499817 0.6267136335372925
-2.035350561141968 -1.839725732803345 -0.04788940399885178
-2.01996111869812 -1.82453465461731 0.7293520569801331
-1.583572268486023 -1.422855019569397 -0.5704371929168701
-2.034000396728516 -1.826286196708679 0.04771487787365913
-1.773646712303162 -1.591961026191711 -0.5502302646636963
-2.047345399856567 -1.83633303642273 0.1441332250833511
-2.065748453140259 -1.8515385389328 -0.539226233959198
-2.044796228408814 -1.832115650177002 0.2402012199163437
-2.054460287094116 -1.839481949806213 -0.4367650151252747
-2.044498682022095 -1.829277276992798 0.3368468582630158
-2.064052820205689 -1.846124529838562 -0.3400154709815979
-2.033972263336182 -1.817942380905151 0.4320719838142395
-2.050643682479858 -1.831555843353272 -0.240549847483635
-2.035616397857666 -1.817495465278626 0.5304490327835083
-2.062577962875366 -1.840274453163147 -0.1448659300804138
-2.037826299667358 -1.816913366317749 0.6303128600120544
-2.055608749389648 -1.83212411403656 -0.04806392639875412
-2.044190406799316 -1.820667266845703 0.7334931492805481
-1.605034828186035 -1.422013759613037 -0.5745782852172852
-2.052689552307129 -1.817344069480896 0.04785449802875519
-1.765746593475342 -1.562750101089478 -0.5443815588951111
-2.072083950042725 -1.83258044719696 0.1449705958366394
-2.087450504302979 -1.8448725938797 -0.5415159463882446
-2.059030055999756 -1.819114804267883 0.2403755336999893
-2.067251920700073 -1.825094342231751 -0.4367650151252747
-2.057219505310059 -1.814959526062012 0.3368468582630158
-2.087312459945679 -1.840860962867737 -0.3417216241359711
-2.052542209625244 -1.80892276763916 0.433323472738266
-2.070856094360352 -1.823779106140137 -0.2414214015007019
-2.046781539916992 -1.801942706108093 0.5300673842430115
-2.069376945495606 -1.820553302764893 -0.1444472372531891
-2.053388118743897 -1.805215835571289 0.6312126517295837
-2.075859546661377 -1.824329137802124 -0.04823845252394676
-2.055399656295776 -1.805077195167542 0.7329755425453186
-1.61637806892395 -1.412044882774353 -0.5750958919525146
-2.07135272026062 -1.808229684829712 0.04799411818385124
-1.776613473892212 -1.550384879112244 -0.5443815588951111
-2.072784900665283 -1.807568550109863 0.1441332250833511
-2.097318887710571 -1.827674984931946 -0.5407527089118958
-2.08219575881958 -1.813856840133667 0.2415957152843475
-2.08590292930603 -1.815805912017822 -0.4380165040493012
-2.071337699890137 -1.801856279373169 0.3370906114578247
-2.09112548828125 -1.81842851638794 -0.3402591943740845
-2.071084976196289 -1.799732089042664 0.4345749318599701
-2.098581552505493 -1.822340846061707 -0.243164524435997
-2.066724538803101 -1.794044613838196 0.531975507736206
-2.086562395095825 -1.809988260269165 -0.144761249423027
-2.06005072593689 -1.785730838775635 0.6294130682945251
-2.097612380981445 -1.817649841308594 -0.04844788089394569
-2.085476160049439 -1.805859208106995 0.7391871809959412
-1.634733080863953 -1.408576130867004 -0.5782017707824707
-2.095735549926758 -1.804527044296265 0.04827335476875305
-1.790079355239868 -1.540798544883728 -0.5452813506126404
-2.091097354888916 -1.798627495765686 0.1445519179105759
-2.112688541412354 -1.815916180610657 -0.5415159463882446
-2.097516298294067 -1.802238702774048 0.2419443428516388
-2.107206583023071 -1.809286594390869 -0.4398937225341797
-2.091087341308594 -1.794178605079651 0.3383092880249023
-2.106468200683594 -1.806737303733826 -0.34074667096138
-2.080287456512451 -1.783022046089172 0.433949202299118
-2.112450361251831 -1.8093101978302 -0.2433388382196426
-2.084853410720825 -1.785042762756348 0.533501923084259
-2.106422185897827 -1.802235841751099 -0.1452846080064774
-2.081044912338257 -1.779265522956848 0.632112443447113
-2.103855609893799 -1.79813289642334 -0.04830826073884964
-2.096251010894775 -1.790367364883423 0.7386695742607117
-1.641582250595093 -1.394627690315247 -0.5771664977073669
-2.111331224441528 -1.792440533638001 0.04834316670894623
-1.814164638519287 -1.539612531661987 -0.549330472946167
-2.112742424011231 -1.791736006736755 0.1451799422502518
-2.128309965133667 -1.803661227226257 -0.5422791838645935
-2.110047101974487 -1.787551522254944 0.2419443428516388
-2.125817060470581 -1.799636960029602 -0.4411451816558838
-2.115686178207398 -1.789793133735657 0.3402591943740845
-2.128124713897705 -1.799678444862366 -0.342209130525589
-2.095702171325684 -1.771005630493164 0.4345749318599701
-2.120463371276856 -1.790662169456482 -0.2428158968687058
-2.107765913009644 -1.779309272766113 0.5361732840538025
-2.129638910293579 -1.796501159667969 -0.14601731300354
-2.099375486373901 -1.769717931747437 0.6339120864868164
-2.119415998458862 -1.785978674888611 -0.04837806895375252
-2.104265689849854 -1.771956205368042 0.7371166348457336
-1.654240489006043 -1.385614395141602 -0.5782017707824707
-2.117659568786621 -1.772523045539856 0.04820354655385017
-1.820385098457336 -1.523158192634583 -0.547980785369873
-2.134392976760864 -1.784629583358765 0.1458079814910889
-2.143863201141357 -1.791276574134827 -0.5430424213409424
-2.127062559127808 -1.776608824729919 0.2424672693014145
-2.132262706756592 -1.779689073562622 -0.4398937225341797
-2.131178617477417 -1.777522325515747 0.34074667096138
-2.149784803390503 -1.792404890060425 -0.3436715602874756
-2.11408543586731 -1.76138973236084 0.4358264207839966
-2.137506484985352 -1.779639482498169 -0.2433388382196426
-2.117118358612061 -1.762039184570313 0.5354100465774536
-2.151342391967773 -1.789252638816834 -0.1466453522443771
-2.123668909072876 -1.764983177185059 0.6375113129615784
-2.14259934425354 -1.780084133148193 -0.04862240329384804
-2.128475904464722 -1.767094731330872 0.7412577271461487
-1.671321511268616 -1.380182504653931 -0.5807899236679077
-2.133067131042481 -1.760241508483887 0.04827335476875305
-1.829471111297607 -1.509172439575195 -0.5475308895111084
-2.152964591979981 -1.77476692199707 0.1462266594171524
-2.163892984390259 -1.782507419586182 -0.5449504852294922
-2.144027709960938 -1.765515446662903 0.2429902106523514
-2.144635200500488 -1.76475977897644 -0.4398937225341797
-2.140469312667847 -1.760079145431519 0.3402591943740845
-2.169913291931152 -1.783655643463135 -0.3448902368545532
-2.138542175292969 -1.75661838054657 0.4383293688297272
-2.156038522720337 -1.769729971885681 -0.244036078453064
-2.127850294113159 -1.745970845222473 0.5350283980369568
-2.15451455116272 -1.766591668128967 -0.14601731300354
-2.138953685760498 -1.752584457397461 0.6384111046791077
-2.164256572723389 -1.772685289382935 -0.04883183166384697
-2.148235321044922 -1.758310198783875 0.7438459396362305
-1.689664840698242 -1.376093864440918 -0.583895742893219
-2.15430498123169 -1.753255009651184 0.04848278686404228
-1.832142949104309 -1.490535736083984 -0.5452813506126404
-2.158796072006226 -1.755031585693359 0.1458079814910889
-2.18816614151001 -1.777640342712402 -0.5480034351348877
-2.171461820602417 -1.763440847396851 0.2447333186864853
-2.171936273574829 -1.762568473815918 -0.4430224001407623
-2.155483961105347 -1.747969388961792 0.34074667096138
-2.172751426696777 -1.761343955993652 -0.3434278070926666
-2.156589269638062 -1.746994853019714 0.4395808577537537
-2.180423498153687 -1.765042066574097 -0.2454305738210678
-2.150368452072144 -1.740091562271118 0.5376997590065002
-2.172701358795166 -1.756908893585205 -0.1464360058307648
-2.144770622253418 -1.73308539390564 0.6366114616394043
-2.182494878768921 -1.762938976287842 -0.04897145181894302
-2.160153865814209 -1.74364697933197 0.7438459396362305
-1.705256223678589 -1.369102239608765 -0.5859662890434265
-2.178970575332642 -1.748183608055115 0.04876202344894409
-1.851625323295593 -1.485024094581604 -0.547980785369873
-2.177229642868042 -1.744913935661316 0.1462266594171524
-2.194393396377564 -1.75741183757782 -0.5464769601821899
-2.186830520629883 -1.750728726387024 0.2450819462537766
-2.190358400344849 -1.752298712730408 -0.4442738890647888
-2.173836469650269 -1.737836956977844 0.3417216241359711
-2.195850133895874 -1.754807353019714 -0.3451339900493622
-2.162558555603027 -1.72696590423584 0.4383293688297272
-2.200479030609131 -1.755990624427795 -0.2463021278381348
-2.170137882232666 -1.731158375740051 0.53960782289505
-2.194284677505493 -1.749167680740356 -0.1470640301704407
-2.165962934494019 -1.72535502910614 0.639310896396637
-2.191620588302612 -1.745168089866638 -0.04890164360404015
-2.179832458496094 -1.734538197517395 0.7464341521263123
-1.705448150634766 -1.350268244743347 -0.5828604698181152
-2.193955898284912 -1.735792875289917 0.04883183166384697
-1.861690640449524 -1.472386121749878 -0.547980785369873
-2.198458194732666 -1.737484097480774 0.1468546986579895
-2.212467670440674 -1.747301697731018 -0.5480034351348877
-2.198696613311768 -1.735803008079529 0.2450819462537766
-2.211540222167969 -1.74468982219696 -0.4461511075496674
-2.204322099685669 -1.737747550010681 0.3446465134620667
-2.213980197906494 -1.744734883308411 -0.3461089432239533
-2.180471420288086 -1.717094540596008 0.4395808577537537
-2.201420545578003 -1.732347130775452 -0.2450819462537766
-2.189586400985718 -1.722415804862976 0.5415159463882446
-2.212420701980591 -1.739128351211548 -0.1474827229976654
-2.185319185256958 -1.716590762138367 0.641560435295105
-2.20344877243042 -1.730209946632385 -0.04890164360404015
-2.197667837142944 -1.724430680274963 0.7485046982765198
-1.720924973487854 -1.343083381652832 -0.5849310159683228
-2.202866792678833 -1.717974424362183 0.04876202344894409
-1.878071904182434 -1.464146018028259 -0.5497803688049316
-2.216836929321289 -1.727003455162048 0.147273376584053
-2.226161241531372 -1.733019232749939 -0.5483850240707397
-2.210761070251465 -1.720410943031311 0.2450819462537766
-2.223666429519653 -1.729207992553711 -0.4461511075496674
-2.222670078277588 -1.727188348770142 0.3456214666366577
-2.235512971878052 -1.736542582511902 -0.3475713729858398
-2.197087049484253 -1.705464005470276 0.4405194520950317
-2.222906589508057 -1.724263072013855 -0.2461278140544891
-2.19845461845398 -1.704681754112244 0.5407527089118958
-2.237138271331787 -1.733427047729492 -0.1483200937509537
-2.203413248062134 -1.706064939498901 0.6433600187301636
-2.228124856948853 -1.724576711654663 -0.04918088018894196
-2.212709188461304 -1.711410045623779 0.7495399713516235
-1.739446640014648 -1.338103890419006 -0.5880368947982788
-2.221148252487183 -1.707428693771362 0.04890164360404015
-1.878976464271545 -1.443874597549439 -0.5470809936523438
-2.241512298583984 -1.721216320991516 0.1481107622385025
-2.247550964355469 -1.724606513977051 -0.5506747364997864
-2.229041337966919 -1.709785580635071 0.2457792013883591
-2.232548713684082 -1.711238503456116 -0.4455253481864929
-2.231521844863892 -1.70921516418457 0.3451339900493622
-2.257038593292236 -1.728134393692017 -0.3490338027477264
-2.219921588897705 -1.69848644733429 0.4427095353603363
-2.244386672973633 -1.715963125228882 -0.2471736818552017
-2.213421583175659 -1.691676497459412 0.5415159463882446
-2.242836236953735 -1.712917685508728 -0.1479014158248901
-2.229212522506714 -1.701281070709229 0.6474091410636902
-2.246469736099243 -1.713831186294556 -0.04932050034403801
-2.235357284545898 -1.704119324684143 0.7531633973121643
-1.75798225402832 -1.33293092250824 -0.5911427140235901
-2.239389657974243 -1.696711182594299 0.0490412637591362
-1.879689931869507 -1.423662304878235 -0.5443815588951111
-2.247103691101074 -1.700704574584961 0.1476920694112778
-2.264233827590942 -1.712426543235779 -0.5518196225166321
-2.255227327346802 -1.704996347427368 0.2473479956388474
-2.260202407836914 -1.707518100738525 -0.448654055595398
-2.243400096893311 -1.693594574928284 0.3451339900493622
-2.265878915786743 -1.709943771362305 -0.3485463261604309
-2.244342565536499 -1.692462086677551 0.4452124834060669
-2.26585865020752 -1.707447052001953 -0.2482195496559143
-2.231450080871582 -1.680907845497131 0.5430424213409424
-2.2643141746521 -1.704424977302551 -0.148529440164566
-2.236363172531128 -1.682162642478943 0.6460594534873962
-2.267969369888306 -1.705316781997681 -0.04952992871403694
-2.256466388702393 -1.695434927940369 0.7562692761421204
-1.773203611373901 -1.325560688972473 -0.5932132601737976
-2.263703346252441 -1.69100296497345 0.04932050034403801
-1.894021153450012 -1.414332747459412 -0.545731246471405
-2.265030860900879 -1.690147519111633 0.1481107622385025
-2.272689580917358 -1.69462776184082 -0.5510563850402832
-2.271572828292847 -1.693178296089172 0.2478709369897842
-2.281278133392334 -1.699173927307129 -0.4505312740802765
-2.270800113677979 -1.690137505531311 0.3475713729858398
-2.280650854110718 -1.696850776672363 -0.3490338027477264
-2.249469757080078 -1.672431826591492 0.4439610242843628
-2.277428388595581 -1.691984415054321 -0.2482195496559143
-2.258601427078247 -1.677385330200195 0.5468586087226868
-2.28388237953186 -1.694924235343933 -0.1490527987480164
-2.250891923904419 -1.669222950935364 0.6469592452049255
-2.274705171585083 -1.686267256736755 -0.04942521452903748
-2.271059274673462 -1.682336330413818 0.7573045492172241
-1.779303789138794 -1.31085741519928 -0.5921779870986938
-2.285115718841553 -1.682271361351013 0.04952992871403694
-1.903848886489868 -1.401075601577759 -0.545731246471405
-2.28321099281311 -1.679026603698731 0.148529440164566
-2.287628889083862 -1.681045293807983 -0.5518196225166321
-2.283338069915772 -1.677278518676758 0.2478709369897842
-2.302639484405518 -1.690219640731812 -0.4524084627628326
-2.28574538230896 -1.676591396331787 0.3480588495731354
-2.305248498916626 -1.690278053283691 -0.3509837090969086
-2.267464399337769 -1.661356925964356 0.4452124834060669
-2.298830509185791 -1.683105826377869 -0.2492654174566269
-2.273425102233887 -1.663895606994629 0.5476218461990356
-2.303720235824585 -1.684833645820618 -0.1495761573314667
-2.275077104568481 -1.662666916847229 0.6505584716796875
-2.294495582580566 -1.676244020462036 -0.04959974065423012
-2.276507377624512 -1.661884307861328 0.7552340030670166
-1.797791600227356 -1.305213570594788 -0.5952838063240051
-2.288711309432983 -1.660406112670898 0.0493554063141346
-1.923049092292786 -1.394614577293396 -0.5484306812286377
-2.307815074920654 -1.672421813011169 0.1493668258190155
-2.300899028778076 -1.666185259819031 -0.5522012114524841
-2.29983377456665 -1.664801955223084 0.2483938634395599
-2.307981014251709 -1.669472098350525 -0.4511570036411285
-2.310265064239502 -1.669896245002747 0.3500087559223175
-2.326646566390991 -1.681118965148926 -0.3524461388587952
-2.288616895675659 -1.652424812316895 0.4470897018909454
-2.313756227493286 -1.669347524642944 -0.2496140450239182
-2.284985780715942 -1.64798367023468 0.5476218461990356
-2.32190752029419 -1.673380732536316 -0.1499948501586914
-2.299280166625977 -1.655854105949402 0.6541576385498047
-2.315879344940186 -1.667194604873657 -0.04980916902422905
-2.300599813461304 -1.654976010322571 0.7593750953674316
-1.806859850883484 -1.292630910873413 -0.5952838063240051
-2.306754350662231 -1.649039268493652 0.04949502646923065
-1.9137122631073 -1.36755895614624 -0.5430318713188171
-2.329186916351318 -1.663233637809753 0.1499948501586914
-2.320465564727783 -1.655783176422119 -0.5541093349456787
-2.317888259887695 -1.65333354473114 0.2490911185741425
-2.329231262207031 -1.660198092460632 -0.4530342221260071
-2.315399169921875 -1.649120450019836 0.3490338027477264
-2.34156060218811 -1.667137742042542 -0.3529336154460907
-2.31136417388916 -1.644423127174377 0.44927978515625
-2.335097074508667 -1.660080552101135 -0.2506599128246307
-2.296435117721558 -1.631991505622864 0.5476218461990356
-2.330276489257813 -1.654817342758179 -0.149785503745079
-2.317141056060791 -1.644272923469544 0.6559572815895081
-2.333986043930054 -1.655614018440247 -0.04994878545403481
-2.321554183959961 -1.645577549934387 0.7624809145927429
-1.831629991531372 -1.291115522384644 -0.6004601716995239
-2.326384782791138 -1.638652801513672 0.049669548869133
-1.92639970779419 -1.356409430503845 -0.5439316630363464
-2.337474584579468 -1.644633769989014 0.149785503745079
-2.331968545913696 -1.639543056488037 -0.5541093349456787
-2.34404468536377 -1.647422194480896 0.2506599128246307
-2.353697299957275 -1.652979016304016 -0.4555371701717377
-2.333355188369751 -1.637477040290833 0.3500087559223175
-2.349891901016235 -1.648470044136047 -0.3524461388587952
-2.32925820350647 -1.632782340049744 0.4505312740802765
-2.34989333152771 -1.646024346351624 -0.251008540391922
-2.325462818145752 -1.62830650806427 0.5518196225166321
-2.348318099975586 -1.643088698387146 -0.1502041965723038
-2.322175264358521 -1.623589754104614 0.6541576385498047
-2.355321884155273 -1.646152853965759 -0.05015821754932404
-2.337737321853638 -1.632648468017578 0.7640337944030762
-1.843772411346436 -1.280500888824463 -0.6014954447746277
-2.355839252471924 -1.634912967681885 0.05005350336432457
-1.94542932510376 -1.349592328071594 -0.5466310381889343
-2.355465173721314 -1.632826685905457 0.1502041965723038
-2.344971656799316 -1.624341011047363 -0.5544909238815308
-2.362040758132935 -1.635554552078247 0.2513571679592133
-2.371677398681641 -1.641002774238586 -0.4567886292934418
-2.357792615890503 -1.630178928375244 0.3519586622714996
-2.371141195297241 -1.63879656791687 -0.3539085686206818
-2.340600252151489 -1.616481423377991 0.4505312740802765
-2.377725601196289 -1.640895485877991 -0.2527516484260559
-2.354549884796143 -1.624295234680176 0.5560173988342285
-2.366309404373169 -1.631188750267029 -0.1506228893995285
-2.341477632522583 -1.612865805625916 0.6564071774482727
-2.363462686538696 -1.627401471138001 -0.05008840560913086
-2.361810445785523 -1.625048637390137 0.768174946308136
-1.846289396286011 -1.263234376907349 -0.5994248986244202
-2.370496988296509 -1.620683550834656 0.05012331157922745
-1.961239337921143 -1.340376138687134 -0.5484306812286377
-2.376703023910523 -1.623100996017456 0.1508322209119797
-2.351389646530151 -1.604610681533814 -0.5533460974693298
-2.373401403427124 -1.619024753570557 0.2513571679592133
-2.399398326873779 -1.635531544685364 -0.4599173367023468
-2.378959894180298 -1.620383858680725 0.3534210920333862
-2.392369508743286 -1.62890636920929 -0.3553709983825684
-2.35836124420166 -1.604546427726746 0.4517827332019806
-2.382532358169556 -1.619775295257568 -0.2520543932914734
-2.375574827194214 -1.614439010620117 0.5583071112632751
-2.390857696533203 -1.623605489730835 -0.1514602601528168
-2.360743045806885 -1.601951122283936 0.6586567163467407
-2.383040904998779 -1.616474628448486 -0.0502629317343235
-2.371498584747315 -1.607436776161194 0.7676572799682617
-1.864675164222717 -1.256792426109314 -0.6025307178497314
-2.38175368309021 -1.604094982147217 0.05012331157922745
-1.962466359138489 -1.321210026741028 -0.5461811423301697
-2.397919416427612 -1.613157987594605 0.1514602601528168
-2.369051694869995 -1.592537045478821 -0.5548725724220276
-2.387953996658325 -1.604638457298279 0.2517057955265045
-2.394358158111572 -1.607729077339172 -0.4567886292934418
-2.395159482955933 -1.607054233551025 0.3541523218154907
-2.408628702163696 -1.615482091903687 -0.3561022281646729
-2.379351139068604 -1.594641447067261 0.4536599516868591
-2.397093296051025 -1.605319976806641 -0.2524030208587647
-2.38678789138794 -1.597815155982971 0.5583071112632751
-2.408774614334106 -1.611316680908203 -0.1518789380788803
-2.386450290679932 -1.59517765045166 0.6627057790756226
-2.40424394607544 -1.606464385986328 -0.05047236010432243
-2.385875940322876 -1.592986941337585 0.7686925530433655
-1.876405119895935 -1.246208548545837 -0.6035659909248352
-2.395949602127075 -1.590057373046875 0.05019311979413033
-1.976285696029663 -1.311053276062012 -0.5475308895111084
-2.415503025054932 -1.601212739944458 0.1518789380788803
-2.389657497406006 -1.582879543304443 -0.5571622848510742
-2.408788204193115 -1.59494686126709 0.2527516484260559
-2.415130615234375 -1.597934007644653 -0.4586658477783203
-2.407698631286621 -1.591808676719666 0.3543960452079773
-2.431161880493164 -1.606711268424988 -0.357808381319046
-2.403337240219116 -1.587117314338684 0.4561628997325897
-2.421268463134766 -1.597745299339294 -0.2537975311279297
-2.394330739974976 -1.579369902610779 0.5575438737869263
-2.423021793365479 -1.597081780433655 -0.1520882844924927
-2.398880481719971 -1.579968690872192 0.663155734539032
-2.425144195556641 -1.596659898757935 -0.05068178847432137
-2.404733419418335 -1.582018852233887 0.7712807655334473
-1.894759654998779 -1.239423751831055 -0.6066718697547913
-2.427078008651733 -1.586420893669128 0.05061198025941849
-1.975602030754089 -1.290828824043274 -0.5448314547538757
-2.429967403411865 -1.586494207382202 0.1520882844924927
-2.410515308380127 -1.572594404220581 -0.5594519972801208
-2.429877519607544 -1.584621667861939 0.2537975311279297
-2.436157464981079 -1.587505221366882 -0.4605430662631989
-2.42374324798584 -1.578210592269898 0.3551272749900818
-2.442319631576538 -1.589699506759644 -0.357808381319046
-2.424294471740723 -1.576762557029724 0.4580401182174683
-2.445728302001953 -1.589488625526428 -0.2551920115947723
-2.428347110748291 -1.577589631080627 0.5628865361213684
-2.439138174057007 -1.583389639854431 -0.1524023115634918
-2.416391849517822 -1.567425012588501 0.6649553179740906
-2.442943096160889 -1.584042191505432 -0.05082140862941742
-2.431931972503662 -1.57569682598114 0.7764571309089661
-1.904775977134705 -1.22754442691803 -0.6071894764900208
-2.444545030593872 -1.574194312095642 0.05075159668922424
-1.987619876861572 -1.279461145401001 -0.545731246471405
-2.444069385528565 -1.572078227996826 0.152297630906105
-2.417860746383667 -1.554027318954468 -0.558688759803772
-2.457369804382324 -1.57881498336792 0.2555406391620636
-2.466854333877564 -1.583692312240601 -0.4642975032329559
-2.44779634475708 -1.570251107215881 0.3570771813392639
-2.458096742630005 -1.576253175735474 -0.3585396111011505
-2.431644439697266 -1.558093070983887 0.4574143886566162
-2.466558456420898 -1.57925021648407 -0.2562378942966461
-2.445643424987793 -1.56525731086731 0.5644130110740662
-2.465002775192261 -1.576434969902039 -0.1533443480730057
-2.431931018829346 -1.554088950157166 0.6663050055503845
-2.455353975296021 -1.568453550338745 -0.05085631087422371
-2.45725679397583 -1.568461537361145 0.7811158895492554
-1.916561603546143 -1.216287016868591 -0.6082247495651245
-2.458852767944336 -1.559231758117676 0.05082140862941742
-2.004733324050903 -1.27077043056488 -0.547980785369873
-2.468483209609985 -1.56352698802948 0.1531350016593933
-2.428650856018066 -1.537109732627869 -0.558688759803772
-2.464964628219605 -1.559490442276001 0.2551920115947723
-2.486198902130127 -1.571709752082825 -0.4658618271350861
-2.475481986999512 -1.563725590705872 0.3595145642757416
-2.484147310256958 -1.56859290599823 -0.3607332706451416
-2.449145078659058 -1.545295476913452 0.4586658477783203
-2.477523565292358 -1.561992049217224 -0.2562378942966461
-2.464815855026245 -1.55337929725647 0.566321074962616
-2.489468574523926 -1.567702054977417 -0.1541817337274551
-2.454267024993897 -1.544338226318359 0.6694543361663818
-2.478092670440674 -1.558726787567139 -0.05110064521431923
-2.463239908218384 -1.548184514045715 0.7795629501342773
-1.937901139259338 -1.211405396461487 -0.6123658418655396
-2.472801208496094 -1.544577717781067 0.0508912168443203
-2.008377552032471 -1.25399911403656 -0.5466310381889343
-2.492624521255493 -1.555146098136902 0.1539723873138428
-2.450719356536865 -1.527813315391541 -0.5613600611686707
-2.485668182373047 -1.548998475074768 0.2562378942966461
-2.490132093429565 -1.550573825836182 -0.464610368013382
-2.486068487167358 -1.546839475631714 0.3595145642757416
-2.506566286087036 -1.55898642539978 -0.3624394237995148
-2.46967339515686 -1.534845113754273 0.4605430662631989
-2.494868516921997 -1.549296379089356 -0.2569351196289063
-2.473664283752441 -1.5355304479599 0.5659394860267639
-2.501779079437256 -1.551773428916931 -0.1542863994836807
-2.474660396575928 -1.533756613731384 0.6721537709236145
-2.498844623565674 -1.548141956329346 -0.05131007358431816
-2.472078323364258 -1.530365228652954 0.7790453433990479
-2.402040719985962 -1.478323340415955 -0.7557516098022461
-2.493744373321533 -1.533561825752258 0.05110064521431923
-2.010442495346069 -1.235865354537964 -0.5448314547538757
-2.510228157043457 -1.541887879371643 0.1543910652399063
-2.471365213394165 -1.516828775405884 -0.5636497735977173
-2.504912614822388 -1.536817193031311 0.2571094334125519
-2.514369249343872 -1.54141116142273 -0.4671133160591126
-2.503577947616577 -1.533593535423279 0.3604895174503326
-2.527546644210815 -1.547669172286987 -0.3639018535614014
-2.493808269500732 -1.525813937187195 0.4630460143089294
-2.515823125839233 -1.538076758384705 -0.25798100233078
-2.492699861526489 -1.523342490196228 0.5678475499153137
-2.517665386199951 -1.537392616271973 -0.1546004116535187
-2.496952295303345 -1.523548126220703 0.675303041934967
-2.524956464767456 -1.540030479431152 -0.05162421986460686
-2.502497434616089 -1.525133967399597 0.7852569818496704
-2.533453464508057 -1.533709645271301 -0.7935391664505005
-2.51689600944519 -1.522485733032227 0.05134497955441475
-2.024450540542603 -1.224120020866394 -0.5461811423301697
-2.52146315574646 -1.523445725440979 0.1543910652399063
-2.485779047012329 -1.500701427459717 -0.5644130110740662
-2.526345729827881 -1.524590611457825 0.2581553161144257
-2.53236722946167 -1.527018785476685 -0.4683647751808167
-2.518152952194214 -1.517249226570129 0.3609769940376282
-2.533722162246704 -1.526027321815491 -0.3631706535816193
-2.511696100234985 -1.511566877365112 0.4642975032329559
-2.537274837493897 -1.52575421333313 -0.2590268552303314
-2.513895511627197 -1.511098027229309 0.5701372623443604
-2.534003734588623 -1.521981120109558 -0.1549144238233566
-2.503040552139282 -1.502195358276367 0.6739533543586731
-2.544751405715942 -1.526623964309692 -0.0517987422645092
-2.525208711624146 -1.513701677322388 0.788880467414856
-2.559034824371338 -1.524885654449463 -0.7981979250907898
-2.539490699768066 -1.512038707733154 0.05158931389451027
-2.029597997665405 -1.207963585853577 -0.5452813506126404
-2.54233717918396 -1.5119309425354 0.1550191044807434
-2.496195077896118 -1.483311057090759 -0.5644130110740662
-2.552344560623169 -1.516073942184448 0.2597241103649139
-2.559953212738037 -1.519384741783142 -0.4714934825897217
-2.545758008956909 -1.509758234024048 0.3634143769741058
-2.556267023086548 -1.515387535095215 -0.3648768067359924
-2.522187471389771 -1.493995189666748 0.4642975032329559
-2.561581373214722 -1.516122102737427 -0.2604213654994965
-2.536211252212524 -1.500508785247803 0.5728086233139038
-2.561760425567627 -1.514417409896851 -0.1559611558914185
-2.523534059524536 -1.490630984306335 0.6766527891159058
-2.557069063186646 -1.509837985038757 -0.05183364823460579
-2.540706396102905 -1.498980522155762 0.7904333472251892
-2.571021318435669 -1.508409261703491 -0.7987155914306641
-2.560074806213379 -1.500785946846008 0.0517987422645092
-2.047861337661743 -1.200032234191895 -0.547980785369873
-2.559463739395142 -1.498627543449402 0.1554377973079681
-2.506233930587769 -1.466285705566406 -0.5644130110740662
-2.559165239334106 -1.496654033660889 0.2593754827976227
-2.577058076858521 -1.505911111831665 -0.4727449417114258
-2.564547061920166 -1.497399568557739 0.3646330833435059
-2.578523874282837 -1.50495707988739 -0.366582989692688
-2.542536735534668 -1.482763648033142 0.4661746919155121
-2.568398952484131 -1.496644735336304 -0.2600727379322052
-2.565026998519898 -1.494080305099487 0.5770063996315002
-2.582366228103638 -1.502973079681397 -0.1565891802310944
-2.550467729568481 -1.483216166496277 0.681151807308197
