0.2130743265151978 0.4544519484043121 0.008761107921600342
0.2093773186206818 0.446364164352417 -0.1138252317905426
0.2155988067388535 0.4592105150222778 0.02658666484057903
0.2179305106401444 0.4637560546398163 -0.09960229694843292
0.2229421585798264 0.4742057919502258 0.04584392160177231
0.2178382873535156 0.4629299342632294 -0.08103305101394653
0.2173804044723511 0.4615386128425598 0.06264084577560425
0.2267686128616333 0.48125359416008 -0.06532196700572968
0.2106584906578064 0.4466598927974701 0.07821723073720932
0.2151815593242645 0.4558376967906952 -0.0441008061170578
0.2171436697244644 0.4597863256931305 0.09883905947208405
0.2159467190504074 0.4568388164043427 -0.026481993496418
0.2091895192861557 0.4421443045139313 0.1129254326224327
0.2216670513153076 0.4678830504417419 0.1387270092964172
0.2137426733970642 0.4481208324432373 -0.1330329924821854
0.2214109003543854 0.4637809097766876 0.008970537222921848
0.2170765846967697 0.4540902972221375 0.02637732215225697
0.2152312397956848 0.4498265385627747 -0.09693097323179245
0.2288280427455902 0.4780291318893433 0.0463668555021286
0.2219183444976807 0.4631793200969696 -0.08134592324495316
0.2240306437015533 0.467169463634491 0.06361579895019531
0.2301228493452072 0.4796587526798248 -0.06532196700572968
0.2174955606460571 0.4525285959243774 -0.04392649605870247
0.2237513363361359 0.4653365314006805 0.1003655344247818
0.222595289349556 0.4625188410282135 -0.02690068073570728
0.2148082405328751 0.4459401369094849 0.1142751350998879
0.2232494950294495 0.4628441035747528 0.1376917362213135
0.2168659120798111 0.4466177225112915 -0.1330329924821854
0.222895085811615 0.4586268067359924 0.008900727145373821
0.2249625623226166 0.4626754224300385 -0.1187741532921791
0.2263592332601547 0.4651349782943726 0.0271100252866745
0.2269634455442429 0.4659630954265595 -0.1007471531629562
0.2269230335950851 0.4656736552715302 0.04532098770141602
0.2268784195184708 0.4651696681976318 -0.0819716602563858
0.2246741205453873 0.4602423906326294 0.06288458406925201
0.2334658652544022 0.4780405163764954 -0.06532196700572968
0.2209528386592865 0.4514196217060089 0.09769420325756073
0.2240614891052246 0.457366406917572 -0.02669133804738522
0.2187741696834564 0.4461793601512909 0.1147250384092331
0.2222182303667069 0.4526036679744721 0.1351035386323929
0.2199785858392716 0.4450928568840027 -0.1330329924821854
0.2221367210149765 0.4488676488399506 -0.1156248450279236
0.2304874360561371 0.465333104133606 0.02721469663083553
0.2345709800720215 0.4731620848178864 -0.1026552394032478
0.2337095439434052 0.4712177515029907 0.04601823166012764
0.2222154587507248 0.447650134563446 -0.07915583997964859
0.2305315136909485 0.4639959633350372 0.06361579895019531
0.2288453429937363 0.4604004919528961 -0.06312832236289978
0.2249743193387985 0.4516233801841736 0.09807582199573517
0.2290313690900803 0.4593658447265625 -0.02690068073570728
0.2218837291002274 0.4446411728858948 0.1147250384092331
0.2232991605997086 0.4472821652889252 -0.008726202882826328
0.224509060382843 0.4493131637573242 0.134585902094841
0.2213445007801056 0.4400945603847504 -0.1319977194070816
0.2373262792825699 0.4708467125892639 0.02763338573276997
0.2299101054668427 0.4557374119758606 -0.09922067821025848
0.2351981401443481 0.4660173058509827 0.04566960781812668
0.2262258529663086 0.4478510618209839 -0.07946870476007462
0.2265999466180801 0.4482028484344482 0.06166588887572289
0.2356377840042114 0.4658772349357605 -0.06410327553749084
0.2251239120960236 0.4443199336528778 -0.04357787221670151
0.2272340953350067 0.4482906460762024 0.09769420325756073
0.2286182194948196 0.4506311416625977 -0.026481993496418
0.2267470508813858 0.4465564489364624 0.1156248450279236
0.2282276302576065 0.4492780566215515 -0.008796012960374355
0.2302669882774353 0.4529010355472565 0.1361388117074966
0.2358521074056625 0.4608954191207886 -0.1387270092964172
0.2324509620666504 0.4538582563400269 0.008900727145373821
0.2221617102622986 0.4335820972919464 -0.1124755293130875
0.2324050664901733 0.4531836807727814 0.02669133804738522
0.2402580082416534 0.4680942296981812 -0.1022736206650734
0.2402659952640533 0.4679087400436401 0.04601823166012764
0.2338616102933884 0.4550454914569855 -0.08103305101394653
0.2297234535217285 0.4466099441051483 0.06166588887572289
0.2343429177999497 0.4553953409194946 -0.06288458406925201
0.2261183708906174 0.4390359222888947 0.07821723073720932
0.2285585254430771 0.4432035386562347 0.09693097323179245
0.2317586243152618 0.449024111032486 -0.026481993496418
0.2253870815038681 0.4363057315349579 0.1133753284811974
0.2304405122995377 0.4458973109722138 -0.008761107921600342
0.2360858172178268 0.4564301371574402 0.1376917362213135
0.2399560213088989 0.4609512388706207 -0.1392446458339691
0.2337658405303955 0.4486775398254395 0.008830917999148369
0.2355632036924362 0.451550155878067 0.02669133804738522
0.2389767467975617 0.4577039182186127 -0.1003655344247818
0.2370695769786835 0.4538580775260925 0.04479805007576942
0.2361175268888474 0.4516511559486389 -0.08072018623352051
0.2374372482299805 0.4537896811962128 0.06288458406925201
0.2467225044965744 0.471335381269455 -0.06532196700572968
0.2322308719158173 0.4428979158401489 -0.04375218227505684
0.2380310446023941 0.4537671208381653 0.09960229694843292
0.2367445528507233 0.4509319067001343 -0.02669133804738522
0.2293340116739273 0.4364466965198517 0.1138252317905426
0.2374675124883652 0.451351523399353 0.1366564631462097
0.2377443760633469 0.4490209817886353 -0.1361388117074966
0.2368924766778946 0.447034627199173 0.008830917999148369
0.234583243727684 0.4424902200698853 -0.1156248450279236
0.2415181994438171 0.4551874995231628 0.02700535394251347
0.2384831458330154 0.4490886628627777 -0.09883905947208405
0.2449060827493668 0.4609894752502441 0.04566960781812668
0.2337005585432053 0.4395268261432648 -0.07884296774864197
0.2433971613645554 0.4573782384395599 0.06361579895019531
0.2500070035457611 0.4696014523506165 -0.06532196700572968
0.2402690052986145 0.4503621459007263 0.09922067821025848
0.2408275902271271 0.4510299861431122 -0.02679600939154625
0.2314569056034088 0.4331163167953491 0.1133753284811974
0.2369670867919922 0.4428693056106567 0.134585902094841
0.2353017926216126 0.4371856451034546 -0.1330329924821854
0.2380331605672836 0.4418907761573792 0.008761107921600342
0.2348162978887558 0.435736745595932 -0.1142751350998879
0.2446109503507614 0.4535330235958099 0.02700535394251347
0.2564554810523987 0.4750969707965851 -0.1049449443817139
0.249931663274765 0.4628179967403412 0.04601823166012764
0.2404438257217407 0.4448771178722382 -0.08009444922208786
0.244615837931633 0.4522188603878021 0.06312832236289978
0.2484738379716873 0.4591595828533173 -0.06410327553749084
0.2383153140544891 0.4396539032459259 -0.04375218227505684
0.2377136498689652 0.4383612871170044 0.09693097323179245
0.2448447495698929 0.4511356949806213 -0.02690068073570728
0.235329806804657 0.4332432448863983 0.1138252317905426
0.2445910125970841 0.4497315883636475 0.1371740996837616
0.2504046857357025 0.4575631022453308 -0.139762282371521
0.2430335283279419 0.4437259435653687 0.008830917999148369
0.247771218419075 0.4518142640590668 0.02700535394251347
0.2484307736158371 0.4526421427726746 -0.1003655344247818
0.2541155517101288 0.4628083109855652 0.04619254544377327
0.2425924241542816 0.4414564669132233 -0.07978157699108124
0.2439404278993607 0.4435425996780396 0.06215336546301842
0.250716358423233 0.4556745290756226 -0.06385953724384308
0.2382133156061173 0.4325927495956421 0.07821723073720932
0.2426639795303345 0.4401295781135559 0.09769420325756073
0.2441285401582718 0.4424205720424652 -0.026481993496418
0.2402328252792358 0.43500155210495 0.1147250384092331
0.2417571544647217 0.4375812411308289 -0.008726202882826328
0.2477247416973114 0.4480130672454834 0.1371740996837616
0.2535929679870606 0.4558038115501404 -0.139762282371521
0.2441797107458115 0.4385242462158203 0.008761107921600342
0.2450840771198273 0.4396066665649414 0.02637732215225697
0.249671533703804 0.4474678933620453 -0.09960229694843292
0.2563692331314087 0.4592832922935486 0.04601823166012764
0.2495220601558685 0.4466501772403717 -0.08103305101394653
0.2489684671163559 0.4452940821647644 0.06264084577560425
0.2538914382457733 0.4539130926132202 -0.06385953724384308
0.245404452085495 0.4380218386650085 -0.04392649605870247
0.2457307279109955 0.4384247362613678 0.09769420325756073
0.246234118938446 0.4389635324478149 -0.02637732215225697
0.2394479364156723 0.4265167415142059 0.1129254326224327
0.2457853555679321 0.4376263320446014 -0.008761107921600342
0.2536861896514893 0.4513248801231384 0.1387270092964172
0.2520138919353485 0.4456144869327545 -0.1371740996837616
0.2492052167654038 0.4402894079685211 0.008830917999148369
0.243890181183815 0.4307235479354858 -0.1142751350998879
0.2491318285465241 0.4396226108074188 0.026481993496418
0.2489151805639267 0.4388830959796906 -0.09807582199573517
0.2615358233451843 0.4609480798244476 0.0463668555021286
0.2545849978923798 0.448332816362381 -0.08165878802537918
0.2530519366264343 0.4452709853649139 0.06288458406925201
0.256072998046875 0.4504038691520691 -0.06361579895019531
0.2524001598358154 0.4432232975959778 -0.04462374001741409
0.2517009377479553 0.4418160915374756 0.09883905947208405
0.2522604167461395 0.4424389898777008 -0.02669133804738522
0.2443513572216034 0.4282198548316956 0.1138252317905426
0.2539558410644531 0.4445106387138367 0.1371740996837616
0.2570441067218781 0.4471940100193024 -0.1382093727588654
0.2512758076190949 0.4368055760860443 0.008796012960374355
0.2488352507352829 0.4323884248733521 -0.1151749417185783
0.2551853358745575 0.44306480884552 0.02679600939154625
0.254914402961731 0.4422374069690704 -0.09922067821025848
0.2498180717229843 0.4332212805747986 0.04375218227505684
0.2586961090564728 0.4482554793357849 -0.0819716602563858
0.2581399977207184 0.4469314515590668 0.06337206065654755
0.262190580368042 0.4537615478038788 -0.06434701383113861
0.2504982650279999 0.4328283369541168 -0.04375218227505684
0.2547792494297028 0.4400481581687927 0.09883905947208405
0.2553430497646332 0.4406671226024628 -0.02669133804738522
0.2492901235818863 0.4298751056194305 0.1147250384092331
0.2492928057909012 0.4293615221977234 0.1330329924821854
0.2484672516584396 0.4253711700439453 -0.1319977194070816
0.2523007094860077 0.4315879940986633 0.008726202882826328
0.2459451258182526 0.4205475747585297 -0.1124755293130875
0.2623077630996704 0.4481673836708069 0.02721469663083553
0.2649415731430054 0.4523051679134369 -0.101892001926899
0.2598876357078552 0.4434996247291565 0.04497236385941505
0.2528254091739655 0.431102842092514 -0.07915583997964859
0.2602490484714508 0.4434064328670502 0.06312832236289978
0.271382749080658 0.4621909856796265 -0.06580944359302521
0.2501991391181946 0.4257727861404419 0.07821723073720932
0.2568495869636536 0.4365666210651398 0.0984574407339096
0.2543596923351288 0.431989461183548 -0.02627265080809593
0.2542638182640076 0.4314821064472199 0.1156248450279236
0.2532658576965332 0.4292745292186737 0.1335506290197372
0.261214017868042 0.4402845799922943 -0.1371740996837616
0.2622904777526856 0.4412210881710053 0.02690068073570728
0.267010360956192 0.4488040804862976 -0.1015103831887245
0.2649383842945099 0.445144534111023 0.04532098770141602
0.2527213096618652 0.42428058385849 -0.07821723073720932
0.2581788897514343 0.4330991208553314 0.06190962716937065
0.2653717398643494 0.4449886083602905 -0.06361579895019531
0.255116194486618 0.4274523556232452 0.07884296774864197
0.2588081955909729 0.4331229031085968 0.09807582199573517
0.2561941742897034 0.4280692636966705 0.1151749417185783
0.2611467242240906 0.4358263611793518 0.1361388117074966
0.2672732472419739 0.4434138238430023 -0.1387270092964172
0.260201632976532 0.4308309853076935 0.02637732215225697
0.2630282044410706 0.4351677894592285 -0.09883905947208405
0.260823130607605 0.431349515914917 0.0441008061170578
0.267949640750885 0.4427862167358398 -0.0819716602563858
0.2642811834812164 0.4363800883293152 0.06264084577560425
0.2674432098865509 0.4414273500442505 -0.06337206065654755
0.2635675668716431 0.434345930814743 -0.04444942995905876
0.2608068585395813 0.4296272993087769 0.09769420325756073
0.2623656690120697 0.4318552613258362 -0.026481993496418
0.2671964764595032 0.438943088054657 0.1376917362213135
0.2573210597038269 0.4200743734836578 -0.1319977194070816
0.264419287443161 0.4313240647315979 0.008830917999148369
0.2567360401153565 0.4186270833015442 -0.1133753284811974
0.2685016691684723 0.437469094991684 0.02690068073570728
0.2651078999042511 0.4316015839576721 -0.0984574407339096
0.2618169188499451 0.4260770380496979 0.04375218227505684
0.2659373879432678 0.4324441850185394 -0.08040731400251389
0.2715588808059692 0.4412400722503662 0.06361579895019531
0.271635890007019 0.4411926865577698 -0.06361579895019531
0.2614401280879974 0.4239693880081177 -0.04357787221670151
0.2710898220539093 0.4394463300704956 0.1003655344247818
0.2675476372241974 0.4333657026290894 -0.02669133804738522
0.2581228613853455 0.417773425579071 0.1133753284811974
0.2682980597019196 0.4337339699268341 0.1366564631462097
0.2694326341152191 0.4330300986766815 -0.1366564631462097
0.2653100192546845 0.4260725677013397 0.008761107921600342
0.2648041844367981 0.425094872713089 -0.1156248450279236
0.2683793902397156 0.4304993152618408 0.02658666484057903
0.2670753598213196 0.4280746281147003 -0.09807582199573517
0.2753342986106873 0.4411408007144928 0.04549529775977135
0.2668569386005402 0.4272262752056122 -0.07978157699108124
0.272528201341629 0.435966968536377 0.06312832236289978
0.2757618725299835 0.4409686625003815 -0.06385953724384308
0.2710238993167877 0.4325520694255829 0.09922067821025848
0.2726886570453644 0.4348715245723724 -0.02690068073570728
0.2620689868927002 0.417611837387085 0.1138252317905426
0.265153169631958 0.4220355749130249 0.1335506290197372
0.266183614730835 0.4213864207267761 -0.1335506290197372
0.2656083405017853 0.4199885427951813 -0.1147250384092331
0.2766440808773041 0.4371007978916168 0.0271100252866745
0.2773365676403046 0.4378566443920136 -0.1007471531629562
0.2772642374038696 0.4375734627246857 0.04532098770141602
0.273990273475647 0.4320728778839111 -0.08103305101394653
0.2733620703220367 0.4307496845722199 0.06264084577560425
0.2851407825946808 0.4491367042064667 -0.06532196700572968
0.2648332118988037 0.4168278276920319 0.07821723073720932
0.2644785940647125 0.4157885313034058 0.09578611701726913
0.271352231502533 0.4262659549713135 -0.026481993496418
0.2722348868846893 0.427323192358017 0.1169745475053787
0.2721750438213348 0.4267360270023346 0.1356211751699448
0.2680758237838745 0.4178918302059174 -0.1330329924821854
0.2711593210697174 0.4223740696907044 0.008761107921600342
0.2786089777946472 0.4334786534309387 0.02700535394251347
0.2772004008293152 0.4309562742710114 -0.09960229694843292
0.2835466861724854 0.4406536221504211 0.04584392160177231
0.2705830335617065 0.4201847016811371 -0.07915583997964859
0.2752872407436371 0.4271622002124786 0.06239710375666618
0.2828912138938904 0.4387930333614349 -0.06410327553749084
0.2698786556720734 0.41828852891922 0.07884296774864197
0.2712694406509399 0.4201221764087677 -0.04375218227505684
0.2663096487522125 0.4122828543186188 0.0954044982790947
0.2721529304981232 0.4210065603256226 -0.02627265080809593
0.2667434811592102 0.4123226404190064 0.1133753284811974
0.2727055847644806 0.4213773906230927 -0.008761107921600342
0.2782981395721436 0.4296899139881134 0.1371740996837616
0.2825853526592255 0.4338160157203674 -0.1387270092964172
0.2751934826374054 0.4221459329128265 0.008796012960374355
0.2661239206790924 0.4080775678157806 -0.1124755293130875
0.2728957533836365 0.4181424975395203 0.02616797760128975
0.2812758386135101 0.4306542873382568 -0.09998391568660736
0.2735385298728943 0.4186483025550842 0.04375218227505684
0.2767530381679535 0.423245370388031 -0.08009444922208786
0.2836974859237671 0.4335351884365082 0.06361579895019531
0.2783368825912476 0.4251813590526581 -0.06239710375666618
0.2749572694301605 0.41969895362854 0.07946870476007462
0.2788719236850739 0.4251885414123535 0.09883905947208405
0.2685455977916718 0.4088216125965118 0.1129254326224327
0.2791681587696075 0.4245083630084992 0.1361388117074966
0.2770814895629883 0.4189420938491821 -0.134585902094841
0.2770301699638367 0.4185469150543213 0.008761107921600342
0.270042210817337 0.4078345894813538 -0.1129254326224327
0.2813244163990021 0.4245516955852509 0.02669133804738522
0.2831904590129852 0.4270439445972443 -0.09960229694843292
0.2863672971725464 0.4316709339618683 0.04532098770141602
0.2873491644859314 0.432822972536087 -0.08228452503681183
0.2845201194286346 0.4282372295856476 0.06312832236289978
0.2823972105979919 0.4248810708522797 -0.06264084577560425
0.2760047912597656 0.4146351516246796 -0.04357787221670151
0.2850979566574097 0.4281335771083832 0.09998391568660736
0.2802197635173798 0.4204896986484528 -0.026481993496418
0.2853431105613709 0.4273690283298492 0.1376917362213135
0.2713840901851654 0.4041668176651001 -0.1304447948932648
0.2799454033374786 0.4166027009487152 0.008761107921600342
0.2761443853378296 0.410791277885437 -0.1142751350998879
0.2865111231803894 0.4258916676044464 0.02690068073570728
0.2839720249176025 0.4217993915081024 -0.09883905947208405
0.2848435938358307 0.4226161241531372 -0.08072018623352051
0.2986033260822296 0.4426976442337036 0.06556570529937744
0.2931289076805115 0.4344179034233093 -0.06434701383113861
0.2847813069820404 0.4212534129619598 0.09883905947208405
0.283148467540741 0.4185231626033783 -0.026481993496418
0.2796901762485504 0.4131006598472595 0.1151749417185783
0.2829002141952515 0.4173709452152252 0.1351035386323929
0.2818157076835632 0.4134363234043121 -0.1340682655572891
0.282846987247467 0.4146381914615631 0.008761107921600342
0.2790054678916931 0.4088534414768219 -0.1142751350998879
0.2883510291576386 0.4222317636013031 0.02679600939154625
0.2902330756187439 0.4246692359447479 -0.09998391568660736
0.2946154177188873 0.4309200048446655 0.04566960781812668
0.2844406664371491 0.415726363658905 -0.07978157699108124
0.2848639488220215 0.4160333275794983 0.06190962716937065
0.3006417453289032 0.4389118254184723 -0.06532196700572968
0.2821609079837799 0.4111613035202026 0.09693097323179245
0.2838020324707031 0.4132434725761414 -0.02627265080809593
0.2836710810661316 0.4127439856529236 0.1156248450279236
0.2879971861839294 0.4185688197612763 0.1361388117074966
0.2901912033557892 0.4194020330905914 -0.1366564631462097
0.2912917137145996 0.4202083945274353 0.02679600939154625
0.3043812215328217 0.4387637376785278 -0.1038000956177712
0.2942087650299072 0.4239421784877777 0.04514667391777039
0.2817020118236542 0.4056181013584137 -0.07821723073720932
0.2934260368347168 0.4221847653388977 0.06312832236289978
0.2968993484973908 0.4270231127738953 -0.06385953724384308
0.2843123078346252 0.4086151123046875 0.07884296774864197
0.2846277356147766 0.4087640047073364 -0.04357787221670151
0.2850244641304016 0.4091814458370209 0.09693097323179245
0.2889643609523773 0.4145289957523346 -0.026481993496418
0.2876606285572052 0.4123518168926239 0.1160747408866882
0.2920184135437012 0.4181318581104279 0.1366564631462097
0.2897812724113464 0.4126231372356415 -0.1351035386323929
0.2886086702346802 0.4106486141681671 0.008761107921600342
0.293068915605545 0.41653111577034 0.02669133804738522
0.2859615683555603 0.406128317117691 -0.09654935449361801
0.3028979599475861 0.430022269487381 0.04601823166012764
0.292493611574173 0.4149435460567474 -0.08040731400251389
0.292933464050293 0.4152596592903137 0.06239710375666618
0.2975841462612152 0.4216961562633514 -0.06337206065654755
0.2920740842819214 0.413275271654129 -0.04427511617541313
0.290140837430954 0.41038778424263 0.09769420325756073
0.2895441353321075 0.4092406928539276 -0.02627265080809593
0.2837757766246796 0.4007908999919891 0.1133753284811974
0.2971647083759308 0.4192351698875427 0.1376917362213135
0.2948974072933197 0.4137363135814667 -0.1361388117074966
0.2937909364700317 0.4118797183036804 0.008830917999148369
0.291327029466629 0.4079734086990356 0.02627265080809593
0.3002044856548309 0.4200952351093292 -0.1003655344247818
0.3070513606071472 0.4295180141925812 0.04619254544377327
0.2965326607227325 0.4144980609416962 -0.08072018623352051
0.2992920577526093 0.4180467426776886 0.06312832236289978
0.3016767203807831 0.4212222397327423 -0.06361579895019531
0.2929987907409668 0.408352255821228 0.09769420325756073
0.2993836104869843 0.4169434010982513 -0.02690068073570728
0.2921873033046722 0.4061727225780487 0.1340682655572891
0.2977786064147949 0.4116674959659576 -0.1361388117074966
0.2966592311859131 0.4098186492919922 0.008830917999148369
0.2925984859466553 0.4040604531764984 -0.1151749417185783
0.2965120673179627 0.4091641306877136 0.026481993496418
0.2962144613265991 0.4084533452987671 -0.09807582199573517
0.3030226230621338 0.4176877737045288 0.04514667391777039
0.2994191646575928 0.4124177694320679 -0.08072018623352051
0.3057036995887756 0.4207650423049927 0.06385953724384308
0.3151138424873352 0.4335578382015228 -0.06580944359302521
0.3004649877548218 0.4126451909542084 0.09922067821025848
0.2975822389125824 0.4083864688873291 -0.026481993496418
0.2927885949611664 0.401513397693634 0.1147250384092331
0.2972939014434815 0.4072436094284058 0.1351035386323929
0.3017884492874146 0.4111359119415283 -0.1366564631462097
0.2971453666687012 0.4045143723487854 0.008761107921600342
0.2919503450393677 0.3972968757152557 -0.1138252317905426
0.3064607977867127 0.4167383015155792 0.0271100252866745
0.3118589520454407 0.423768937587738 -0.1022736206650734
0.3094748258590698 0.4203755557537079 0.04566960781812668
0.2976043820381165 0.40395587682724 -0.07946870476007462
0.3050997257232666 0.4138272106647492 0.06312832236289978
0.3157763779163361 0.4281522035598755 -0.06532196700572968
0.2998383939266205 0.4058005213737488 0.09807582199573517
0.3051758706569672 0.4127227365970612 -0.02690068073570728
0.2955845296382904 0.399459570646286 0.1147250384092331
0.302429586648941 0.4082628786563873 0.1361388117074966
0.3034973740577698 0.4074697196483612 -0.1361388117074966
0.3105571568012238 0.4161894023418427 0.02721469663083553
0.3136351108551025 0.4200083613395691 -0.101892001926899
0.3063309788703919 0.4097791910171509 -0.08103305101394653
0.3032248616218567 0.4053290486335754 0.06215336546301842
0.311621367931366 0.4164013564586639 -0.06385953724384308
0.2983995676040649 0.3984438180923462 0.07884296774864197
0.2999148964881897 0.4001759588718414 -0.04375218227505684
0.3050194382667542 0.4068390130996704 0.09883905947208405
0.3020565509796143 0.4025941789150238 -0.02637732215225697
0.3007061779499054 0.4005030393600464 0.1156248450279236
0.3014350831508637 0.4013279676437378 -0.008761107921600342
0.3087545931339264 0.4107743799686432 0.1376917362213135
0.3179823160171509 0.4207532107830048 -0.1413151919841766
0.3075892329216003 0.4067058563232422 0.008900727145373821
0.3062215149402618 0.4044570922851563 0.02658666484057903
0.3130028247833252 0.413114070892334 -0.1007471531629562
0.3213314712047577 0.4239528477191925 0.04654116556048393
0.302021712064743 0.3981874585151672 -0.07915583997964859
0.3108479380607605 0.4095270335674286 0.06312832236289978
0.3169217109680176 0.4173776507377625 -0.06434701383113861
0.2987836599349976 0.3932052552700043 0.07821723073720932
0.3090408742427826 0.406262218952179 0.09922067821025848
0.3060695827007294 0.4020648300647736 -0.026481993496418
0.2987712323665619 0.3921932876110077 0.1138252317905426
0.3030174672603607 0.3976232707500458 -0.008726202882826328
0.3174722194671631 0.4162894785404205 0.1402799189090729
0.3103324472904205 0.4047255516052246 -0.1366564631462097
0.3104210495948792 0.4045485854148865 0.008900727145373821
0.3139044046401978 0.4086450040340424 0.02700535394251347
0.3122897148132324 0.4062493443489075 -0.09960229694843292
0.3121379315853119 0.4059052169322968 0.04479805007576942
0.3132272362709045 0.4070276916027069 -0.08134592324495316
0.3112769722938538 0.4042013883590698 0.06264084577560425
0.3234622180461884 0.4198726415634155 -0.06507822871208191
0.3091240525245667 0.4006819725036621 -0.04427511617541313
0.3118695914745331 0.4040948152542114 0.09922067821025848
0.3088690340518951 0.399918258190155 -0.026481993496418
0.3062687814235687 0.3962654769420624 0.1156248450279236
0.3132776319980621 0.404895544052124 0.1371740996837616
0.3178950846195221 0.4086484313011169 -0.1387270092964172
0.3107809722423554 0.3992157280445099 0.008830917999148369
0.308916449546814 0.3966777920722961 -0.1160747408866882
0.3142941892147064 0.4032928645610809 0.02679600939154625
0.3151182234287262 0.4040592610836029 -0.09960229694843292
0.3186406493186951 0.4084288775920868 0.04532098770141602
0.3099830746650696 0.3970458209514618 -0.07978157699108124
0.3177576661109924 0.4067112505435944 0.06337206065654755
0.319051057100296 0.4082198441028595 -0.06361579895019531
0.3042445480823517 0.3889952600002289 0.07821723073720932
0.3158933818340302 0.403453528881073 0.09960229694843292
0.3141171038150787 0.4008965194225311 -0.02669133804738522
0.3114326298236847 0.3971847593784332 0.1165246441960335
0.3089397549629211 0.3935809135437012 0.1340682655572891
0.3135594725608826 0.3973202109336853 -0.1356211751699448
0.3044298887252808 0.3853368163108826 -0.1133753284811974
0.3208180665969849 0.4057891368865967 0.0271100252866745
0.3203676640987396 0.4049288034439087 -0.1003655344247818
0.3190113008022308 0.4030698239803314 0.04497236385941505
0.3102944791316986 0.3917750418186188 -0.07915583997964859
0.3205892741680145 0.4044829905033112 0.06337206065654755
0.323126494884491 0.4075380265712738 -0.06385953724384308
0.3146883249282837 0.396326869726181 -0.04427511617541313
0.3174812197685242 0.3997010588645935 0.09922067821025848
0.3193937838077545 0.4018208086490631 -0.02690068073570728
0.3117716610431671 0.3919506669044495 0.1156248450279236
0.3189003169536591 0.4004820287227631 0.1371740996837616
0.3210850059986115 0.4012099206447601 -0.1376917362213135
0.3137556314468384 0.3917711675167084 0.008761107921600342
0.3298193216323853 0.4113874137401581 0.02763338573276997
0.3231164813041687 0.4027387499809265 -0.1003655344247818
0.3242416679859161 0.4039967358112335 0.04532098770141602
0.3203758299350739 0.3988946974277496 -0.08103305101394653
0.3245786428451538 0.4038387537002564 0.06361579895019531
0.3346000611782074 0.4161585569381714 -0.06556570529937744
0.3120555877685547 0.3878415822982788 0.07884296774864197
0.3123806118965149 0.3879681825637817 -0.04357787221670151
0.310342401266098 0.3852990567684174 0.09616773575544357
0.3146011233329773 0.3903074264526367 -0.02627265080809593
0.3095384538173676 0.3837522268295288 0.1138252317905426
0.3151894509792328 0.3906185626983643 -0.008761107921600342
0.3216188848018646 0.3983020782470703 0.1371740996837616
0.3299660682678223 0.406457781791687 -0.1402799189090729
0.3240483701229096 0.3988836705684662 0.008970537222921848
0.3072558045387268 0.3780781924724579 -0.1124755293130875
0.3188214898109436 0.3920300602912903 0.026481993496418
0.3283987045288086 0.4035186171531677 -0.1011287644505501
0.335859477519989 0.4125388860702515 0.04654116556048393
0.3206574320793152 0.3935854136943817 -0.08040731400251389
0.326135665178299 0.4000243842601776 0.06337206065654755
0.3387518525123596 0.4153508245944977 -0.06580944359302521
0.3122575581073761 0.3825928568840027 0.07821723073720932
0.3239037990570068 0.3965797126293182 -0.04479805007576942
0.3192355036735535 0.3907247483730316 0.09807582199573517
0.3223751485347748 0.3942864835262299 -0.02669133804738522
0.3109759390354157 0.3800736665725708 0.1133753284811974
0.326839953660965 0.3990361094474793 0.1382093727588654
0.3315675854682922 0.4026530086994171 -0.139762282371521
0.3242818117141724 0.3935252130031586 0.008900727145373821
0.3111273348331451 0.3774276375770569 -0.1129254326224327
0.3279053270816803 0.3974981904029846 0.02700535394251347
0.321209043264389 0.3891039490699768 -0.09807582199573517
0.3361940085887909 0.4071115851402283 0.04619254544377327
0.3334641754627228 0.403518944978714 -0.08291026949882507
0.3314505517482758 0.4007973074913025 0.06385953724384308
0.3239284455776215 0.3915622234344482 -0.06239710375666618
0.3228513300418854 0.3897059559822083 -0.04427511617541313
0.3282192051410675 0.3960446715354919 0.09998391568660736
0.3263948857784271 0.3935636579990387 -0.02679600939154625
0.3136217594146729 0.3778934180736542 0.1133753284811974
0.3271487057209015 0.3937727510929108 0.1371740996837616
0.3318937122821808 0.3973630368709564 -0.1387270092964172
0.3244563341140747 0.3881830871105194 0.008830917999148369
0.3225048184394836 0.3857114315032959 -0.1160747408866882
0.3357990682125092 0.4013264179229736 0.02742404118180275
0.33147993683815 0.3958835899829865 -0.1003655344247818
0.3313518762588501 0.3955903351306915 0.04514667391777039
0.3311972916126251 0.395125538110733 -0.08165878802537918
0.3355162739753723 0.3999944925308228 0.06410327553749084
0.3457940220832825 0.4121012687683106 -0.06605318188667297
0.3175689578056335 0.3781957626342773 0.07821723073720932
0.3347659111022949 0.3982521295547485 0.1011287644505501
0.3278488218784332 0.3897469937801361 -0.02669133804738522
0.3149973154067993 0.3742038607597351 0.1129254326224327
0.3311346471309662 0.3929565250873566 0.1376917362213135
0.3284160494804382 0.3876662254333496 -0.1361388117074966
0.3201479911804199 0.3775055706501007 -0.1142751350998879
0.3373003304004669 0.3974495530128479 0.02731936983764172
0.3380481898784638 0.3980490565299988 -0.1015103831887245
0.3392654359340668 0.3993410766124725 0.04584392160177231
0.3288297355175018 0.3867837488651276 -0.08040731400251389
0.3280100524425507 0.3855468332767487 0.06215336546301842
0.3486625850200653 0.4096771478652954 -0.06605318188667297
0.3243839144706726 0.3806111216545105 -0.04375218227505684
0.3273482024669647 0.3839534819126129 0.09807582199573517
0.3240801692008972 0.3798516690731049 -0.02616797760128975
0.3239287734031677 0.3794059455394745 0.1151749417185783
0.3246745765209198 0.3801450729370117 -0.008726202882826328
0.3301044404506683 0.3862295746803284 0.1361388117074966
0.3361504077911377 0.3912250697612763 -0.1382093727588654
0.3176925778388977 0.3693517148494721 -0.1124755293130875
0.3400667905807495 0.3950850963592529 0.02731936983764172
0.3369750082492828 0.3912168145179749 -0.1003655344247818
0.3420450687408447 0.3969628512859345 0.04584392160177231
0.3353918492794037 0.3889667689800263 -0.08134592324495316
0.3268031477928162 0.3787387311458588 0.06142215058207512
0.3450286686420441 0.3997195363044739 -0.06483449041843414
0.3305660784244537 0.3826943337917328 0.08009444922208786
0.3270331621170044 0.3783372342586517 -0.04375218227505684
0.3338730931282044 0.3861140012741089 0.09922067821025848
0.3303966224193573 0.3815548121929169 0.1165246441960335
0.3351762294769287 0.3869380354881287 -0.008935632184147835
0.337854266166687 0.3897546231746674 0.1382093727588654
0.3439502418041229 0.3946945369243622 -0.1402799189090729
0.3325146734714508 0.3813030421733856 0.008830917999148369
0.3202633857727051 0.3671247959136963 -0.1124755293130875
0.3323089182376862 0.3806645274162293 0.026481993496418
0.335823118686676 0.384419173002243 -0.09922067821025848
0.3487412035465241 0.3990660011768341 0.0463668555021286
0.3354983925819397 0.3836418688297272 -0.08072018623352051
0.3359757661819458 0.3839171826839447 0.06264084577560425
0.3517334759235382 0.4017819166183472 -0.06556570529937744
0.3254196345806122 0.3714621365070343 0.07821723073720932
0.340173751115799 0.3880304098129273 -0.04514667391777039
0.3339715898036957 0.3808216154575348 0.0984574407339096
0.3306695222854614 0.3767909407615662 -0.02627265080809593
0.3266227245330811 0.371917724609375 0.1142751350998879
0.341842532157898 0.3888373672962189 0.1387270092964172
0.3415800034999847 0.3864935636520386 -0.1382093727588654
0.3431172072887421 0.3879598677158356 0.0090403463691473
0.3266924023628235 0.3692585825920105 -0.1138252317905426
0.3389301598072052 0.3828215301036835 0.02679600939154625
0.3398005664348602 0.3835348188877106 -0.09960229694843292
0.3541616797447205 0.3996037542819977 0.04671547934412956
0.3460329174995422 0.3901575207710266 -0.08259739726781845
0.3426008820533752 0.3860163390636444 0.06337206065654755
0.3505759835243225 0.3948632180690765 -0.06483449041843414
0.3389028906822205 0.3811791837215424 -0.04462374001741409
0.3483647108078003 0.3916836082935333 0.101892001926899
0.343914806842804 0.386408656835556 -0.0271100252866745
0.3356917500495911 0.3769045770168304 0.1165246441960335
0.3394062519073486 0.3806736171245575 0.1366564631462097
0.3442699015140533 0.3840994834899902 -0.1382093727588654
0.3404764831066132 0.3796004951000214 0.008900727145373821
0.3370709121227264 0.3756716847419739 -0.1165246441960335
0.3509349524974823 0.390848845243454 0.02752871252596378
0.3542791604995728 0.3942964375019074 -0.1030368581414223
0.3487482666969299 0.3877322673797607 -0.08259739726781845
0.3466154336929321 0.3850905895233154 0.06361579895019531
0.3639503717422485 0.4042078256607056 -0.06678439676761627
0.3305743336677551 0.3668823838233948 0.07821723073720932
0.3432009816169739 0.3804950416088104 0.09960229694843292
0.3439275622367859 0.3810330629348755 -0.02690068073570728
0.3370085954666138 0.3731057047843933 0.1160747408866882
0.3394642472267151 0.3754289746284485 0.1356211751699448
0.3417453467845917 0.3759685158729553 -0.1361388117074966
0.3404271602630615 0.3742557466030121 0.008830917999148369
0.3396853506565094 0.3733093440532684 -0.1165246441960335
0.3536550402641296 0.3883893489837647 0.02752871252596378
0.3543785810470581 0.3889111876487732 -0.1022736206650734
0.3503111898899078 0.3843126893043518 0.04549529775977135
0.3434592187404633 0.3765315711498261 -0.08072018623352051
0.3626783788204193 0.3973227441310883 0.06605318188667297
0.3614091575145721 0.3957935571670532 -0.06580944359302521
0.3331275880336762 0.3645656108856201 0.07821723073720932
0.3374694287776947 0.3690584301948547 -0.04375218227505684
0.3431987762451172 0.3751925528049469 0.09883905947208405
0.343882143497467 0.3756762444972992 -0.02669133804738522
0.346186637878418 0.3779288232326508 0.1183242574334145
0.3407712876796722 0.3716261088848114 0.1351035386323929
0.3561460077762604 0.3863574266433716 -0.1407975554466248
0.3403199315071106 0.3689303398132324 0.008761107921600342
0.3303892314434052 0.3580393791198731 -0.1124755293130875
0.3509379625320435 0.3800415694713593 0.0271100252866745
0.3610822558403015 0.3907533884048462 -0.1034184768795967
0.3570429384708405 0.3862468898296356 0.04601823166012764
0.3474209010601044 0.3755747079849243 -0.08103305101394653
0.3438673615455627 0.3714730143547058 0.06215336546301842
0.3628147542476654 0.3918042778968811 -0.06556570529937744
0.3437205255031586 0.3709246218204498 0.08009444922208786
0.3441019058227539 0.3710762560367584 -0.04427511617541313
0.3418042063713074 0.3684694468975067 0.09769420325756073
0.3464964628219605 0.373266339302063 -0.02669133804738522
0.3408588171005249 0.3669361770153046 0.1156248450279236
0.347114771604538 0.3735399842262268 -0.008900727145373821
0.3551973104476929 0.3819703757762909 0.139762282371521
0.3509191274642944 0.3753941357135773 -0.1376917362213135
0.3538159132003784 0.3782282173633575 0.0090403463691473
0.3342122733592987 0.3571470379829407 -0.1129254326224327
0.3508522212505341 0.3746666312217712 0.02690068073570728
0.3638014197349548 0.3882230520248413 -0.1034184768795967
0.3638185858726502 0.3881056010723114 0.04654116556048393
0.3473314344882965 0.3702587187290192 -0.08040731400251389
0.3478109836578369 0.3705106377601624 0.06239710375666618
0.3519523143768311 0.374791145324707 -0.06312832236289978
0.3381852507591248 0.3598788678646088 0.07821723073720932
0.3466840982437134 0.36866495013237 -0.04427511617541313
0.348403811454773 0.3703641593456268 0.09883905947208405
0.3463559150695801 0.3679297268390656 -0.026481993496418
0.3394034802913666 0.3602921962738037 0.1142751350998879
0.3510855138301849 0.3725628852844238 -0.008935632184147835
0.3565299212932587 0.3780758380889893 0.1392446458339691
0.3522022366523743 0.3715331256389618 -0.1371740996837616
0.3592002689838409 0.3786504566669464 0.009110156446695328
0.3393803238868713 0.3576322495937347 -0.1138252317905426
0.3617112636566162 0.3808977901935577 0.02752871252596378
0.3543311655521393 0.3728654682636261 -0.09998391568660736
0.3665191829204559 0.3855562210083008 0.04654116556048393
0.3607999384403229 0.3792746961116791 -0.08291026949882507
0.3558639585971832 0.3738245964050293 0.06337206065654755
0.362773984670639 0.3809502124786377 -0.06459075212478638
0.3561243712902069 0.3734450340270996 -0.04514667391777039
0.3631771802902222 0.3807078003883362 0.1022736206650734
0.3627072274684906 0.3799495100975037 -0.02752871252596378
0.3446027040481567 0.3607321679592133 0.1151749417185783
0.3631661832332611 0.379766196012497 0.1407975554466248
0.3628203272819519 0.3774214386940002 -0.1402799189090729
0.3562896251678467 0.3703690469264984 0.008970537222921848
0.3513275980949402 0.3650833964347839 -0.1169745475053787
0.3602053821086884 0.3740473687648773 0.02721469663083553
0.3732733428478241 0.3873467743396759 -0.10456333309412
0.3512257933616638 0.3643407225608826 0.04427511617541313
0.3593245446681976 0.3724815547466278 -0.0819716602563858
0.3598437607288361 0.3727593123912811 0.06361579895019531
0.3571508824825287 0.3698405921459198 -0.06312832236289978
0.3462575376033783 0.3580596148967743 -0.04357787221670151
0.3630961179733276 0.37534099817276 0.1015103831887245
0.3597942292690277 0.3716680705547333 -0.0271100252866745
0.3511804044246674 0.3625166416168213 0.1165246441960335
0.3520782291889191 0.3633165657520294 -0.008830917999148369
0.3523597419261932 0.3633531630039215 0.1356211751699448
0.3411121070384979 0.3500391244888306 -0.1309624314308167
0.3560101389884949 0.3650719821453095 0.008900727145373821
0.3470005393028259 0.3557088375091553 -0.1147250384092331
0.3683237433433533 0.3773036003112793 0.02763338573276997
0.3649260401725769 0.3735620975494385 -0.1015103831887245
0.3662302196025848 0.3747662603855133 0.04584392160177231
0.3590893745422363 0.3672024607658386 -0.08134592324495316
0.3693147003650665 0.3773952126502991 0.06483449041843414
0.3874329924583435 0.395771712064743 -0.0680030956864357
0.3483509421348572 0.3556000888347626 0.07884296774864197
0.3528709709644318 0.3599627614021301 -0.0441008061170578
0.358769565820694 0.3658521175384522 0.09960229694843292
0.3595179617404938 0.3663593828678131 -0.02690068073570728
0.3563706278800964 0.3628987073898315 0.117424450814724
0.3559444546699524 0.3623381853103638 -0.008865822106599808
0.3670134544372559 0.3733452260494232 0.1402799189090729
0.376136988401413 0.3806277811527252 -0.1433857530355454
0.3557379543781281 0.3597339391708374 0.008830917999148369
0.3453639149665833 0.349121481180191 -0.1133753284811974
0.3709488213062286 0.3747230470180512 0.02763338573276997
0.3841051459312439 0.387742429971695 -0.1060898005962372
0.3730449080467224 0.376446008682251 0.0463668555021286
0.3630351126194 0.3660892844200134 -0.08165878802537918
0.367745578289032 0.3705805540084839 0.06410327553749084
0.3817954361438751 0.3846044540405273 -0.0665406584739685
0.3563936352729797 0.358765184879303 0.08009444922208786
0.3595893085002899 0.3617295324802399 -0.04462374001741409
0.3557775318622589 0.3577701449394226 0.09807582199573517
0.3536139130592346 0.3553462326526642 -0.02627265080809593
0.3547702133655548 0.3562593758106232 0.1160747408866882
0.3641104698181152 0.3655112385749817 -0.009005441330373287
0.3655192852020264 0.3666694164276123 0.1387270092964172
0.3760501742362976 0.3752633929252625 -0.1423504799604416
0.3639045655727387 0.3628897666931152 0.008970537222921848
0.3533133268356323 0.3522050976753235 -0.1151749417185783
0.3678959012031555 0.366485983133316 0.02721469663083553
0.3756717145442963 0.3739708065986633 -0.1030368581414223
0.3813129663467407 0.3794540762901306 0.04706409946084023
0.3669827282428742 0.3649387955665588 -0.0819716602563858
0.3675075769424439 0.365205705165863 0.06361579895019531
0.3647546768188477 0.3623435199260712 -0.06312832236289978
0.3560857474803925 0.3534850180149078 0.07946870476007462
0.3592769205570221 0.3564039766788483 -0.04427511617541313
0.3694188296794891 0.3663368821144104 0.1011287644505501
0.3617607355117798 0.3584923148155212 -0.02669133804738522
0.3586333990097046 0.3551451861858368 0.1165246441960335
0.356705367565155 0.3531126379966736 -0.008761107921600342
0.3776839673519135 0.3736189901828766 0.1423504799604416
0.3566296398639679 0.3509487211704254 -0.1340682655572891
0.3692807257175446 0.3631446361541748 0.0090403463691473
0.3599326610565186 0.3538283407688141 -0.1165246441960335
0.3675958812236786 0.3611093759536743 0.02700535394251347
0.3684662580490112 0.3617117404937744 -0.1003655344247818
0.3697322905063629 0.362827867269516 0.04532098770141602
0.3808045983314514 0.3734325766563416 -0.0844746083021164
0.3757194578647614 0.3681887090206146 0.06459075212478638
0.3800378739833832 0.3722905516624451 -0.06532196700572968
0.3603320717811585 0.3524938523769379 -0.0441008061170578
0.3677563667297363 0.3596310317516327 0.09998391568660736
0.369968444108963 0.3615416884422302 -0.0271100252866745
0.3569213449954987 0.3485482633113861 0.1151749417185783
0.3733688592910767 0.364228218793869 0.139762282371521
0.3771577477455139 0.3658744096755981 -0.1407975554466248
0.3747414350509644 0.3632765710353851 0.009110156446695328
0.3722514510154724 0.360736757516861 -0.1196739599108696
0.3773443400859833 0.3654167652130127 0.02752871252596378
0.3766884207725525 0.3645268976688385 -0.101892001926899
0.3780471086502075 0.3657139539718628 0.04601823166012764
0.3749455809593201 0.3624603152275085 -0.08259739726781845
0.3769168257713318 0.3641114830970764 0.06434701383113861
0.3898319602012634 0.3764563500881195 -0.0665406584739685
0.3567829430103302 0.3443006873130798 0.07853010296821594
0.3642793893814087 0.3512893915176392 -0.04427511617541313
0.3773875832557678 0.3638030290603638 0.101892001926899
0.3840533196926117 0.3699702620506287 -0.02794739976525307
0.3678299188613892 0.3540943264961243 0.1178743541240692
0.3773581087589264 0.3628861904144287 0.1402799189090729
0.3727229833602905 0.3565554022789002 -0.1382093727588654
0.3685956001281738 0.3523606956005096 0.008900727145373821
0.3634897768497467 0.347358375787735 -0.1160747408866882
0.3827750682830811 0.3655322790145874 0.027738057076931
0.3849053680896759 0.3673097789287567 -0.1034184768795967
0.3805910348892212 0.3630658090114594 0.04601823166012764
0.3674582839012146 0.3502928614616394 -0.08040731400251389
0.3765749633312225 0.3587328493595123 0.06385953724384308
0.3766375780105591 0.3586671054363251 -0.06385953724384308
0.3634708523750305 0.345886766910553 0.07946870476007462
0.3724981248378754 0.3542296290397644 -0.04497236385941505
0.3756494224071503 0.3571015596389771 0.1007471531629562
0.3692503273487091 0.3507730960845947 -0.02669133804738522
0.3773596584796906 0.3582261204719544 0.1201238632202148
0.3727856278419495 0.3537603616714478 -0.008970537222921848
0.3756769895553589 0.3562549948692322 0.1387270092964172
0.3765463531017304 0.3553359806537628 -0.1387270092964172
0.3680757880210877 0.3470997512340546 0.008830917999148369
0.3644277155399323 0.3435394167900085 -0.1156248450279236
0.3838005065917969 0.3615488409996033 0.02763338573276997
0.3902556300163269 0.3673727214336395 -0.1041817143559456
0.3859554529190064 0.3631976246833801 0.0463668555021286
0.3799074292182922 0.3572562336921692 -0.08259739726781845
0.3775614500045776 0.3548018932342529 0.06361579895019531
0.3906448483467102 0.3669682741165161 -0.06580944359302521
0.3715776801109314 0.3488126695156097 0.08072018623352051
0.3690882325172424 0.3462334275245667 -0.04427511617541313
0.3723430633544922 0.3491645753383637 0.09922067821025848
0.3716293871402741 0.3482515811920166 -0.02669133804738522
0.3783668279647827 0.3543172180652618 0.1196739599108696
0.3766448199748993 0.3525813221931458 -0.009005441330373287
0.3823255896568298 0.3576488196849823 0.1402799189090729
0.3903318345546722 0.3632268607616425 -0.1428681164979935
0.3763475716114044 0.3499686419963837 0.008970537222921848
0.3696717917919159 0.3436404764652252 -0.1165246441960335
0.3848519027233124 0.3575012981891632 0.02752871252596378
0.398566335439682 0.369981974363327 -0.1057081818580627
0.3943234384059906 0.3659152686595917 0.04706409946084023
0.3823922574520111 0.3545953035354614 -0.08259739726781845
0.3858534097671509 0.3575544357299805 0.06459075212478638
0.3961098194122315 0.3669301569461823 -0.06629692018032074
0.3754534125328064 0.3475519716739655 0.08103305101394653
0.3758841454982758 0.3477071225643158 -0.04479805007576942
0.3819787502288818 0.3532211780548096 0.1011287644505501
0.3828527927398682 0.3537815809249878 -0.02731936983764172
0.3636508285999298 0.335802435874939 0.1142751350998879
0.3732196390628815 0.3445177972316742 -0.008865822106599808
0.3862330913543701 0.3562808632850647 0.1407975554466248
0.389948844909668 0.3579488098621368 -0.1418328434228897
0.3875627219676971 0.3555093109607697 0.00917996559292078
0.3705659806728363 0.3397991955280304 -0.1160747408866882
0.3858038783073425 0.3535241186618805 0.02742404118180275
0.3808045089244843 0.3486985862255096 -0.1003655344247818
0.3835781514644623 0.3511153161525726 0.04549529775977135
0.3949999809265137 0.3613171577453613 -0.08478748053312302
0.3912086486816406 0.3575983941555023 0.06507822871208191
0.4044599831104279 0.3695816993713379 -0.0672718808054924
0.3705167770385742 0.3383283019065857 0.07946870476007462
0.3782421946525574 0.3451405465602875 -0.04479805007576942
0.3930769860744476 0.3585513830184937 0.1034184768795967
0.3911562561988831 0.3565492630004883 -0.027738057076931
0.3774534165859222 0.3438176214694977 0.1178743541240692
0.3725988864898682 0.3392767310142517 -0.008796012960374355
0.3929358124732971 0.3575440943241119 0.1423504799604416
0.3910060226917267 0.3539213240146637 -0.1413151919841766
0.3870691359043121 0.350112110376358 0.009110156446695328
0.3830474317073822 0.3463528454303742 -0.1192240566015244
0.3941901922225952 0.3561781644821167 0.02784272842109203
0.4065439105033875 0.3670829236507416 -0.1064714193344116
0.3874990344047546 0.3497639000415802 0.04566960781812668
0.3916454613208771 0.353258490562439 -0.08353600651025772
0.393695592880249 0.3548585474491119 0.06507822871208191
0.3893333077430725 0.3508034348487854 -0.06434701383113861
0.3699337244033814 0.3330898284912109 0.07884296774864197
0.3791613876819611 0.3411588668823242 -0.04462374001741409
0.3984898924827576 0.3584242761135101 0.1041817143559456
0.3906650543212891 0.3511395752429962 -0.02752871252596378
0.3798444867134094 0.3411741554737091 0.1178743541240692
0.3794221878051758 0.3406752049922943 -0.008900727145373821
0.3925465643405914 0.3522118926048279 0.1413151919841766
0.3934673070907593 0.3511829972267151 -0.1413151919841766
0.380549818277359 0.3394151031970978 0.008900727145373821
0.3810923993587494 0.3397796452045441 -0.1178743541240692
0.4026320576667786 0.3587320744991303 0.02826141566038132
0.3959000408649445 0.352486252784729 -0.1030368581414223
0.3943962454795837 0.3510240018367767 0.04619254544377327
0.3896739780902863 0.3465773463249207 -0.08259739726781845
0.4080334305763245 0.3626512587070465 0.06702814251184464
0.4080967307090759 0.3625800609588623 -0.06702814251184464
0.3825903832912445 0.339679628610611 0.08103305101394653
0.3815338611602783 0.338503509759903 -0.04462374001741409
0.3907008469104767 0.3465147912502289 0.1015103831887245
0.3931069374084473 0.348403662443161 -0.02752871252596378
0.3880524337291718 0.343682199716568 0.1196739599108696
0.3937690258026123 0.3486225306987763 -0.00917996559292078
0.3978896141052246 0.3520230054855347 0.1423504799604416
0.4046107232570648 0.3560853004455566 -0.1444210261106491
0.3889165222644806 0.3420324623584747 0.0090403463691473
