-12.76834869384766 5.623528480529785 0.243530884385109
-5.481842517852783 2.4154953956604 -1.382999062538147
-12.80832672119141 5.649145603179932 0.7336454391479492
-6.586012363433838 2.907524108886719 -1.399393200874329
-8.22948932647705 3.638219356536865 -1.42511796951294
-7.204923152923584 3.188270092010498 0.9673988223075867
-12.75149250030518 5.645359516143799 -1.7122642993927
-5.717782974243164 2.533772706985474 0.990543007850647
-12.7452335357666 5.653233528137207 -1.219831824302673
-4.710553169250488 2.090381145477295 1.001747250556946
-12.75333690643311 5.664821147918701 -0.7313426733016968
-4.081312656402588 1.814557552337647 1.03117561340332
-12.76044178009033 5.675978183746338 -0.2437752187252045
-3.882635354995728 1.728660702705383 1.138803839683533
-4.696022510528565 2.105552196502686 -1.378987908363342
-12.7196569442749 5.708436965942383 0.2433563619852066
-5.464846134185791 2.453706741333008 -1.382999062538147
-12.73214244842529 5.722051620483398 0.731552004814148
-6.576296329498291 2.958264350891113 -1.401682853698731
-11.15195178985596 5.018906116485596 1.069923877716065
-8.200287818908691 3.693960189819336 -1.424492239952087
-7.169821739196777 3.23278021812439 0.9656926989555359
-12.70091342926025 5.729345798492432 -1.710801839828491
-5.708956718444824 2.577692747116089 0.9921073913574219
-12.69456291198731 5.737150192260742 -1.218785881996155
-4.694055557250977 2.122406959533691 1.001365661621094
-12.6989221572876 5.747129440307617 -0.7305052876472473
-4.057894706726074 1.838181376457214 1.028476238250732
-12.70957660675049 5.759971141815186 -0.2435657829046249
-3.863435506820679 1.752532005310059 1.136733293533325
-4.692125797271729 2.142282247543335 -1.382093667984009
-12.67141246795654 5.790728092193604 0.2431818246841431
-5.448017597198486 2.490847587585449 -1.382999062538147
-12.68200206756592 5.803596496582031 0.7309239506721497
-6.556007862091065 3.00295901298523 -1.401682853698731
-11.10304069519043 5.088057994842529 1.068529367446899
-8.200091361999512 3.761221647262573 -1.428872346878052
-7.14404296875 3.279851913452148 0.965205192565918
-12.64719009399414 5.809036254882813 -1.708851933479309
-5.669741153717041 2.606590747833252 0.9883529543876648
-12.64435768127441 5.81842851638794 -1.217740058898926
-4.677717208862305 2.153487920761108 1.000983953475952
-12.64318370819092 5.825911998748779 -0.7295632362365723
-4.032901763916016 1.860046625137329 1.02532684803009
-12.64102458953857 5.832943439483643 -0.2430073022842407
-3.856678485870361 1.781218886375427 1.138286113739014
-4.65603494644165 2.16521167755127 -1.375882029533386
-12.61979961395264 5.87398624420166 0.2429724037647247
-5.458761215209961 2.541983127593994 -1.390197515487671
-12.62669467926025 5.885241508483887 0.7300865650177002
-6.524208545684815 3.043674945831299 -1.399393200874329
-11.04377841949463 5.154492378234863 1.066263318061829
-8.180791854858398 3.821721315383911 -1.430123925209045
-7.117374897003174 3.327964782714844 0.9647177457809448
-12.60632705688477 5.897188186645508 -1.708851933479309
-5.640671730041504 2.641083478927612 0.9864757657051086
-12.57636833190918 5.893877983093262 -1.215125322341919
-4.669679164886475 2.189425706863403 1.00251042842865
-12.594970703125 5.910641193389893 -0.7291445136070251
-4.018054008483887 1.887327551841736 1.024876952171326
-12.58189678192139 5.912546634674072 -0.242658257484436
-3.826667785644531 1.799877524375916 1.13310980796814
-4.644297599792481 2.199317455291748 -1.376917362213135
-12.56041431427002 5.953380584716797 0.24262335896492
-5.440881729125977 2.580030202865601 -1.390197515487671
-12.57808303833008 5.969822883605957 0.7296679019927979
-6.520534038543701 3.097572088241577 -1.403209328651428
-9.450959205627441 4.491689205169678 0.9154839515686035
-8.161046981811523 3.882134675979614 -1.43137538433075
-7.0885910987854 3.375011920928955 0.9639865159988403
-12.53617572784424 5.971393585205078 -1.704952120780945
-5.6185302734375 2.678697824478149 0.9858499765396118
-12.52412605285645 5.976385116577148 -1.21407949924469
-4.643650054931641 2.216897487640381 1.000220775604248
-12.54619216918945 5.99498176574707 -0.7287258505821228
-4.004780292510986 1.915332674980164 1.024876952171326
-12.52949047088623 5.99506139755249 -0.2424488365650177
-3.80878210067749 1.824045419692993 1.131556868553162
-4.635791301727295 2.235043048858643 -1.378987908363342
-12.49333190917969 6.028756141662598 0.242134690284729
-5.41220760345459 2.612868309020996 -1.387498140335083
-12.51811599731445 6.048798561096191 0.7286211848258972
-6.516424655914307 3.151565790176392 -1.407025575637817
-9.422958374023438 4.559294700622559 0.91583251953125
-8.119523048400879 3.932126522064209 -1.428872346878052
-7.048779964447022 3.416624307632446 0.9617928862571716
-12.48703765869141 6.055301666259766 -1.703977108001709
-5.60146951675415 2.718719482421875 0.9861628413200378
-12.46776103973389 6.056708812713623 -1.212684988975525
-4.617465972900391 2.244112968444824 0.9979310631752014
-12.47709274291992 6.069318771362305 -0.7271558046340942
-3.998319625854492 1.946656584739685 1.026676654815674
-12.48014068603516 6.078884124755859 -0.2423092126846314
-3.790745735168457 1.848051309585571 1.130003929138184
-4.627408027648926 2.269948959350586 -1.38105845451355
-12.45021152496338 6.112773895263672 0.2420997768640518
-5.390799045562744 2.647928953170776 -1.386598348617554
-12.45693778991699 6.124173164367676 0.727469801902771
-6.498344898223877 3.197582006454468 -1.407788753509522
-9.370255470275879 4.61276912689209 0.9137408137321472
-8.124465942382812 4.003017902374268 -1.43450403213501
-7.005776405334473 3.454866647720337 0.959111750125885
-12.43841075897217 6.13664436340332 -1.703002214431763
-5.573978424072266 2.752411127090454 0.9845985174179077
-12.41910171508789 6.13790225982666 -1.211987733840942
-4.596804141998291 2.272880554199219 0.9967861771583557
-12.4193811416626 6.146133899688721 -0.7262137532234192
-3.974498987197876 1.968637228012085 1.023977160453796
-12.42413997650147 6.156589508056641 -0.2420299798250198
-3.785001516342163 1.877244591712952 1.132074475288391
-4.635646343231201 2.314279317855835 -1.388305306434631
-12.40007781982422 6.195967674255371 0.2419601678848267
-5.379154205322266 2.688984394073486 -1.388397932052612
-12.39780426025391 6.202945709228516 0.726527750492096
-6.461819648742676 3.235838174819946 -1.404735803604126
-9.328917503356934 4.673610687255859 0.9128692746162415
-8.089258193969727 4.056097984313965 -1.433252573013306
-6.981486320495606 3.50369143486023 0.959111750125885
-12.39526557922363 6.223330497741699 -1.703002214431763
-5.544036865234375 2.785935640335083 0.9827213287353516
-12.36882877349854 6.22087287902832 -1.21129047870636
-4.577316761016846 2.303151607513428 0.9960229396820068
-12.37081909179688 6.229991912841797 -0.7258996963500977
-3.955437898635864 1.993704915046692 1.022627472877502
-12.36121559143066 6.233271598815918 -0.241646021604538
-3.771803617477417 1.90362286567688 1.132074475288391
-4.602560997009277 2.337032794952393 -1.383129000663757
-12.34870338439941 6.275698184967041 0.2417856454849243
-5.391994476318359 2.74143385887146 -1.396496176719666
-12.34817504882813 6.283567428588867 0.7261090278625488
-6.453639984130859 3.286875009536743 -1.407788753509522
-9.27026081085205 4.723433971405029 0.9102545976638794
-8.089618682861328 4.125423908233643 -1.438258528709412
-6.950403213500977 3.547521591186523 0.958136796951294
-12.32786655426025 6.294919013977051 -1.699589848518372
-5.509114742279053 2.815517425537109 0.9799054861068726
-12.30313873291016 6.293124675750732 -1.209024429321289
-4.566777229309082 2.33693790435791 0.9971678256988525
-12.32457160949707 6.312231540679932 -0.7256903648376465
-3.940041542053223 2.019693374633789 1.022177577018738
-12.30426597595215 6.309966564178467 -0.2413667738437653
-3.745009422302246 1.922195315361023 1.127933382987976
-4.586133480072022 2.369107723236084 -1.383129000663757
-12.2797212600708 6.348897457122803 0.2412969768047333
-5.372724056243897 2.779010057449341 -1.396496176719666
-12.29691219329834 6.365947246551514 0.7256903648376465
-6.437508583068848 3.335462331771851 -1.409315228462219
-9.21583366394043 4.777034282684326 0.9081628322601318
-8.053606986999512 4.178160667419434 -1.437006950378418
-6.920182704925537 3.593213558197022 0.9574055671691895
-12.27657413482666 6.377169609069824 -1.698614954948425
-5.491076946258545 2.854820489883423 0.9802183508872986
-12.24123096466065 6.36966609954834 -1.207281351089478
-4.315258502960205 2.246381282806397 0.9456493854522705
-12.26957607269287 6.392581462860107 -0.7250623106956482
-3.927573442459106 2.048051595687866 1.022627472877502
-12.25636863708496 6.393862247467041 -0.2412969768047333
-3.724648952484131 1.944716811180115 1.125862836837769
-4.579742908477783 2.406458616256714 -1.386234760284424
-12.28465461730957 6.460532188415527 0.2422742992639542
-5.373887538909912 2.827339172363281 -1.401894927024841
-12.28398036956787 6.468390464782715 0.7275744676589966
-6.410592555999756 3.378492116928101 -1.408552050590515
-9.169921875 4.834751605987549 0.9069426655769348
-8.017253875732422 4.230595588684082 -1.435755491256714
-6.879130840301514 3.633094072341919 0.9552119374275208
-4.519304752349854 2.389819860458374 0.8097047805786133
-4.294265270233154 2.273696422576904 0.9445044994354248
-3.916622877120972 2.077247381210327 1.023527264595032
-13.74294090270996 7.291874885559082 -0.2715594470500946
-3.712687730789185 1.971578240394592 1.126380443572998
-4.562831401824951 2.438372135162354 -1.386234760284424
-13.71692085266113 7.336464881896973 0.2715245485305786
-5.340272426605225 2.857431650161743 -1.398295760154724
-12.4480447769165 6.66619348526001 0.7400304079055786
-6.424918651580811 3.443567514419556 -1.416947603225708
-9.114874839782715 4.88735294342041 0.9048509001731873
-8.001447677612305 4.293935298919678 -1.438258528709412
-6.846604347229004 3.677273511886597 0.9542369842529297
-10.68599700927734 5.741793155670166 -1.489487171173096
-4.56340217590332 2.454057693481445 0.8206552267074585
-13.69148254394531 7.369021892547607 -1.360326886177063
-4.278287410736084 2.303620576858521 0.9445044994354248
-13.69118690490723 7.378110408782959 -0.8150801658630371
-3.893449783325195 2.099914312362671 1.021277785301209
-13.70049858093262 7.392387866973877 -0.271733969449997
-3.700532913208008 1.998367428779602 1.126898169517517
-4.54230260848999 2.468322277069092 -1.385199546813965
-13.79185104370117 7.50083589553833 0.2740376889705658
-5.320193767547607 2.894643783569336 -1.398295760154724
-13.69043731689453 7.454971790313721 0.8169642686843872
-6.369691848754883 3.471426725387573 -1.410078525543213
-9.073535919189453 4.947052478790283 0.9041537046432495
-7.999020099639893 4.364830017089844 -1.443264365196228
-6.812054634094238 3.720224380493164 0.9530182480812073
-10.64565086364746 5.81625509262085 -1.489487171173096
-4.459499359130859 2.438470602035523 0.8050117492675781
-4.267267227172852 2.336260557174683 0.9456493854522705
-3.871860265731812 2.12329626083374 1.01947820186615
-13.8273811340332 7.58596134185791 -0.2752942442893982
-3.68649172782898 2.024152994155884 1.126898169517517
-4.528341770172119 2.501841545104981 -1.386234760284424
-14.84514236450195 8.20848560333252 0.2960975170135498
-5.316908359527588 2.941147804260254 -1.402794718742371
-13.66951084136963 7.567779541015625 0.8188483715057373
-6.369343280792236 3.529131650924683 -1.41542112827301
-9.00741195678711 4.992889881134033 0.9010160565376282
-7.95453405380249 4.412900924682617 -1.44076144695282
-6.787652015686035 3.768654108047485 0.9532620310783386
-5.371241092681885 2.985911846160889 0.9733352661132812
-4.489298820495606 2.498711824417114 0.9986943006515503
-15.31071090698242 8.528833389282227 -0.9184960126876831
-3.860346794128418 2.152172803878784 1.020377993583679
-16.35006713867188 9.119028091430664 -0.3267788589000702
-3.663836479187012 2.045132160186768 1.124309897422791
-4.514133930206299 2.53528618812561 -1.387270092964172
-16.33542633056641 9.182015419006348 0.3270930051803589
-5.296245574951172 2.978194713592529 -1.402794718742371
-13.5797929763794 7.642455101013184 0.8166502714157104
-6.378762245178223 3.592781066894531 -1.423053503036499
-8.958449363708496 5.047826766967773 0.8996216058731079
-7.93385648727417 4.474147796630859 -1.442638635635376
-6.750804424285889 3.810094356536865 0.9517995715141296
-5.35198450088501 3.024309158325195 0.9736481308937073
-4.440988063812256 2.512590169906616 0.9918251633644104
-16.46390724182129 9.322418212890625 -0.9915570020675659
-3.846923351287842 2.180031299591065 1.020827889442444
-16.49649620056152 9.352282524108887 -0.3310023546218872
-3.646109104156494 2.068753719329834 1.123274683952332
-4.49632453918457 2.566738843917847 -1.387270092964172
-5.268557548522949 3.011228799819946 -1.400995135307312
-13.47929859161377 7.710297584533691 0.8138241171836853
-6.333078861236572 3.625520706176758 -1.418474078178406
-8.903972625732422 5.099353313446045 0.8977041244506836
-7.919566154479981 4.539250373840332 -1.445767283439636
-6.708543300628662 3.848241090774536 0.9496059417724609
-5.334166526794434 3.063566446304321 0.9742738604545593
-4.43014669418335 2.547447443008423 0.9933516383171082
-17.85252189636231 10.27394962310791 -1.079481482505798
-3.836676120758057 2.209752321243286 1.022177577018738
-17.85678291320801 10.28885173797607 -0.359728991985321
-3.63492488861084 2.09608793258667 1.124309897422791
-4.482091426849365 2.599222898483276 -1.388305306434631
-18.97103881835938 11.01040172576904 0.3828708827495575
-5.244568347930908 3.045063734054565 -1.400095343589783
-13.37987899780273 7.774775505065918 0.8109979629516602
-6.318437099456787 3.674466133117676 -1.420763731002808
-8.865612030029297 5.157837867736816 0.8973555564880371
-7.888485431671143 4.593051433563232 -1.445767283439636
-6.670187950134277 3.886819124221802 0.9478997588157654
-5.311483860015869 3.098808288574219 0.9739609956741333
-4.397447109222412 2.568631172180176 0.9899170398712158
-19.78747749328613 11.56750202178955 -1.201214909553528
-3.806407928466797 2.226959705352783 1.018128514289856
-19.84869384765625 11.61723709106445 -0.4014402627944946
-3.620573043823242 2.120781421661377 1.124309897422791
-4.473822593688965 2.636334896087647 -1.391411185264587
-5.238287925720215 3.09051513671875 -1.404144525527954
-13.28915882110596 7.84666919708252 0.8087998628616333
-6.309532642364502 3.728475093841553 -1.424579977989197
-8.815667152404785 5.211494445800781 0.8959610462188721
-7.869828701019287 4.656057834625244 -1.448270320892334
-6.666804313659668 3.947450160980225 0.9513120651245117
-5.293119430541992 3.137828350067139 0.9745867252349854
-4.37940788269043 2.599268436431885 0.9899170398712158
-21.60886383056641 12.83550643920898 -1.317191362380981
-3.780717611312866 2.247503995895386 1.015429019927979
-21.66630363464356 12.88497638702393 -0.4400100708007813
-3.605679273605347 2.146005868911743 1.124309897422791
-4.462404727935791 2.67069411277771 -1.393481731414795
-22.84372901916504 13.68252277374268 0.4647924900054932
-5.225488185882568 3.131107330322266 -1.406394004821777
-13.21831226348877 7.926671504974365 0.8077531456947327
-6.257073879241943 3.755171537399292 -1.418474078178406
-8.764616012573242 5.262149333953857 0.8943922519683838
-7.854886054992676 4.719691753387451 -1.451398968696594
-6.622768402099609 3.982507944107056 0.9488747119903564
-5.25302267074585 3.162576913833618 0.9711451530456543
-4.373383522033691 2.636111974716187 0.9925884008407593
-24.25216484069824 14.62984085083008 -1.484352350234985
-3.772004842758179 2.277215003967285 1.017228722572327
-24.25182342529297 14.64695930480957 -0.4945313930511475
-3.581068515777588 2.16450309753418 1.121204137802124
-4.430445671081543 2.693753242492676 -1.38934063911438
-25.68933486938477 15.63164520263672 0.5248985886573792
-5.210160255432129 3.171564817428589 -1.408193588256836
-13.12342166900635 7.99485969543457 0.8053457140922546
-6.250820636749268 3.811026334762573 -1.423053503036499
-8.70215129852295 5.307647228240967 0.8917775750160217
-7.811628818511963 4.768238544464111 -1.449521780014038
-6.606662273406982 4.035890102386475 0.950580894947052
-10.47637176513672 6.402336120605469 -1.507523775100708
-5.235871315002441 3.202264547348023 0.9720837473869324
-26.85541534423828 16.4570198059082 -1.650676012039185
-3.759337663650513 2.305530548095703 1.018128514289856
-26.86249923706055 16.48071479797363 -0.5500998497009277
-3.562577724456787 2.187429189682007 1.120168805122376
-4.425158023834229 2.731966495513916 -1.393481731414795
-25.9651050567627 16.04263687133789 0.5327521562576294
-5.175189971923828 3.198758602142334 -1.404594421386719
-13.05171298980713 8.073494911193848 0.804298996925354
-6.251443862915039 3.870019912719727 -1.42915940284729
-8.672597885131836 5.370953559875488 0.8924748301506042
-7.792424201965332 4.829625129699707 -1.452024698257446
-6.550360202789307 4.062978267669678 0.9464372992515564
-5.230734825134277 3.248250722885132 0.9752124547958374
-4.488345623016357 2.790489673614502 1.027315616607666
-3.750174522399902 2.335186243057251 1.019928097724915
-29.65040969848633 18.47011756896973 -0.6097521781921387
-3.547605991363525 2.211627960205078 1.120168805122376
-4.419071197509766 2.771003484725952 -1.39762282371521
-25.76270294189453 16.16717910766602 0.5309022068977356
-5.159334659576416 3.238954544067383 -1.406394004821777
-12.95275211334229 8.137852668762207 0.80168217420578
-6.227597713470459 3.915658473968506 -1.429922580718994
-8.621397972106934 5.422882080078125 0.8910803198814392
-7.78526496887207 4.900745391845703 -1.457030653953552
-6.523515701293945 4.109667301177979 0.9466810822486877
-10.43076705932617 6.573690414428711 -1.513860940933228
-5.201247215270996 3.280473470687866 0.9739609956741333
-4.420614719390869 2.79135799407959 1.01624870300293
-3.712369203567505 2.347769498825073 1.014079332351685
-43.33899688720703 27.4189567565918 -0.8951688408851624
-3.535343885421753 2.238407611846924 1.121204137802124
-4.409395217895508 2.80801272392273 -1.400728702545166
-25.57332229614258 16.29827880859375 0.5293315052986145
-5.146455764770508 3.281180143356323 -1.409093379974365
-12.91246128082275 8.238823890686035 0.8027288913726807
-6.196800708770752 3.956926345825195 -1.42915940284729
-8.559823036193848 5.467922210693359 0.8886399269104004
-7.734218597412109 4.944337368011475 -1.453901886940002
-6.484632968902588 4.148690700531006 0.9452186226844788
-5.176555156707764 3.31563925743103 0.9736481308937073
-4.410935878753662 2.828510046005249 1.018538475036621
-3.695888519287109 2.373629331588745 1.014079332351685
-43.75218200683594 28.1099739074707 -0.9077345728874207
-3.526130676269531 2.267213582992554 1.123274683952332
-4.366973400115967 2.82404088973999 -1.393481731414795
-25.3665828704834 16.41666030883789 0.527411699295044
-5.121788024902344 3.315969944000244 -1.408643484115601
-12.86636257171631 8.336370468139648 0.8034616112709045
-6.155847072601318 3.991546630859375 -1.426106452941895
-8.513083457946777 5.522125720977783 0.8877683877944946
-7.709453582763672 5.004664897918701 -1.455779075622559
-6.4638352394104 4.199267864227295 0.9464372992515564
-10.33796691894531 6.718686103820801 -1.513860940933228
-5.148313522338867 3.348466396331787 0.9727094769477844
-4.269335746765137 2.779960632324219 0.9902986884117126
-3.68412446975708 2.402566909790039 1.015429019927979
-3.494040489196777 2.281213998794556 1.118098258972168
-4.347151756286621 2.854459047317505 -1.393481731414795
-25.20790481567383 16.56479835510254 0.5265042185783386
-5.093628406524658 3.348434209823608 -1.407293796539307
-12.72775936126709 8.373300552368164 0.7984373569488525
-6.163906097412109 4.058176040649414 -1.434502005577087
-8.467668533325195 5.57703971862793 0.8870711326599121
-7.677625179290772 5.060538768768311 -1.4564049243927
-6.422761917114258 4.236639976501465 0.9447311758995056
-10.29081058502197 6.790694236755371 -1.513860940933228
-5.12481164932251 3.384326457977295 0.9727094769477844
-4.23017168045044 2.796705484390259 0.9857192635536194
-3.672136068344116 2.431455612182617 1.016778707504273
-3.478029727935791 2.305551052093506 1.118098258972168
-4.333547592163086 2.889024496078491 -1.395552277565002
-24.98185920715332 16.66712951660156 0.5242004990577698
-5.083095073699951 3.392566919326782 -1.410892963409424
-12.66234970092773 8.457515716552734 0.7980186343193054
-6.115838050842285 4.088016510009766 -1.429922580718994
-8.435153007507324 5.640449047088623 0.8877683877944946
-7.651959419250488 5.120606422424316 -1.458282113075256
-6.38808012008667 4.278061866760254 0.9439999461174011
-10.24315166473389 6.862371921539307 -1.513860940933228
-5.105982303619385 3.423321723937988 0.9736481308937073
-4.217064380645752 2.830545663833618 0.9872457385063171
-3.655071973800659 2.457032680511475 1.016778707504273
-40.50552368164063 27.23910903930664 -0.8520264625549316
-3.468260049819946 2.334090232849121 1.120168805122376
-4.320182800292969 2.922784805297852 -1.39762282371521
-24.7469539642334 16.75494766235352 0.5216524004936218
-5.042136669158936 3.415066719055176 -1.405944108963013
-12.57803630828857 8.525578498840332 0.7963439226150513
-6.087870597839356 4.129550933837891 -1.429922580718994
-8.389969825744629 5.693259239196777 0.8870711326599121
-7.620195865631104 5.174792289733887 -1.458907842636108
-6.350603580474854 4.315865516662598 0.9427812695503235
-5.087461948394775 3.461330890655518 0.9745867252349854
-4.192831993103027 2.855869054794312 0.9861009120941162
-3.626994132995606 2.474167585372925 1.01362943649292
-40.32082748413086 27.51531600952148 -0.85206139087677
-3.457078218460083 2.360912322998047 1.121721744537354
-4.309227466583252 2.959435939788818 -1.400728702545166
-24.55357170104981 16.87520217895508 0.5200468301773071
-5.039047718048096 3.464536666870117 -1.411792874336243
-12.48365688323975 8.589406967163086 0.7941458225250244
-6.065360546112061 4.17640495300293 -1.431449055671692
-8.350019454956055 5.751692771911621 0.8870711326599121
-7.577378273010254 5.223380088806152 -1.457656383514404
-6.321952342987061 4.361222743988037 0.9430249929428101
-5.050169944763184 3.487783193588257 0.9720837473869324
-4.174407482147217 2.886187076568604 0.9864825010299683
-3.606428623199463 2.497209548950195 1.012729644775391
-40.12117767333984 27.79158210754395 -0.851921796798706
-3.440511703491211 2.384989500045776 1.121721744537354
-4.282643795013428 2.984281301498413 -1.398658156394959
-24.37744903564453 16.99961853027344 0.518755316734314
-5.012152194976807 3.496526002883911 -1.410892963409424
-12.41507625579834 8.66732120513916 0.7935177683830261
-6.027136325836182 4.210846900939941 -1.42915940284729
-8.302510261535645 5.802689075469971 0.8861995935440063
-7.554598331451416 5.283894062042236 -1.460159301757813
-6.288867950439453 4.401876926422119 0.9425374865531921
-5.01984167098999 3.517543077468872 0.9708322882652283
-4.154664993286133 2.914534330368042 0.9864825010299683
-3.594130992889404 2.525060415267944 1.014079332351685
-3.411556959152222 2.39946174621582 1.117580652236939
-4.258550643920898 3.011875629425049 -1.39762282371521
-24.18962287902832 17.12087059020996 0.5172893404960632
-4.997162818908691 3.538188457489014 -1.413592457771301
-12.34448719024658 8.746854782104492 0.7928897142410278
-6.013607501983643 4.264177322387695 -1.43297553062439
-8.250422477722168 5.852440357208252 0.8849794268608093
-7.501418113708496 5.325071334838867 -1.457030653953552
-6.259602069854736 4.446823596954346 0.9427812695503235
-5.004821300506592 3.55937123298645 0.9727094769477844
-4.131018161773682 2.941190719604492 0.9857192635536194
-3.578001976013184 2.55122184753418 1.014529228210449
-26.99033164978027 19.25201606750488 -0.5786868929862976
-3.390005350112915 2.419853210449219 1.11602771282196
-4.246836662292481 3.048291206359863 -1.400728702545166
-23.98830223083496 17.23099517822266 0.515544056892395
-4.95493221282959 3.560479879379273 -1.408643484115601
-12.27015018463135 8.823493003845215 0.7920523881912231
-5.990065574645996 4.310643196105957 -1.434502005577087
-8.215831756591797 5.914552688598633 0.8856766819953918
-7.502525806427002 5.405023097991943 -1.464539408683777
-6.221964359283447 4.485771656036377 0.9418062567710876
-4.983053684234619 3.596536636352539 0.9733352661132812
-22.90143585205078 16.55960655212402 -1.481107592582703
-3.560103893280029 2.576138734817505 1.014529228210449
-3.382416009902954 2.450260639190674 1.119133591651917
-4.228575706481934 3.080140113830566 -1.401763916015625
-19.07131576538086 13.90194416046143 0.4119465947151184
-4.950423717498779 3.609911203384399 -1.414492249488831
-12.17921161651611 8.887746810913086 0.790168285369873
-5.96616792678833 4.356987476348877 -1.436028480529785
-8.182384490966797 5.977641582489014 0.8865482211112976
-7.451851844787598 5.447941780090332 -1.462036490440369
-6.188894271850586 4.527927398681641 0.9415625333786011
-4.959417819976807 3.632404327392578 0.9736481308937073
-4.08638334274292 2.996260404586792 0.9849560260772705
-17.62275695800781 12.93100070953369 -1.145529389381409
-3.537320137023926 2.597469568252564 1.013179540634155
-16.59959411621094 12.19361400604248 -0.3595195710659027
-3.369897365570068 2.47724723815918 1.120686411857605
-4.216290473937988 3.116475582122803 -1.404869794845581
-15.19254207611084 11.2377872467041 0.3298504948616028
-4.921968460083008 3.642065048217773 -1.413592457771301
-12.10563087463379 8.964237213134766 0.7894355654716492
-5.922986030578613 4.389181613922119 -1.43297553062439
-8.137252807617188 6.032246589660645 0.8861995935440063
-7.467577457427979 5.539847850799561 -1.472674012184143
-6.14756965637207 4.563923358917236 0.9401001334190369
-4.916498184204102 3.653977155685425 0.9702065587043762
-14.98137378692627 11.1423864364624 -1.633472919464111
-4.07954216003418 3.035262584686279 0.9883906245231628
-13.76419830322266 10.24831104278565 -0.8993410468101501
-3.508161783218384 2.613950967788696 1.010030269622803
-13.57359790802002 10.11744785308838 -0.2955041527748108
-3.357166528701782 2.504178047180176 1.122239351272583
-4.17588472366333 3.131925344467163 -1.398658156394959
-12.5883674621582 9.4481782913208 0.2747357785701752
-4.902656078338623 3.681018114089966 -1.41539204120636
-12.03956127166748 9.046131134033203 0.789226233959198
-5.89533805847168 4.432784557342529 -1.433738827705383
-8.08857250213623 6.084116935729981 0.8855023384094238
-7.422407150268555 5.587094306945801 -1.471422553062439
-6.120314598083496 4.610313415527344 0.9408313035964966
-4.894023418426514 3.690590143203735 0.9708322882652283
-12.33320617675781 9.307244300842285 -1.35178554058075
-4.04258394241333 3.051840305328369 0.9845744371414185
-12.35049533843994 9.330445289611816 -0.8112072944641113
-3.492936611175537 2.640728950500488 1.010930061340332
-11.20594215393066 8.474987983703613 -0.2452412098646164
-3.330359935760498 2.520559310913086 1.119133591651917
-4.166770458221436 3.169633865356445 -1.402799248695374
-10.95173072814941 8.336943626403809 0.240249827504158
-4.883687973022461 3.719026565551758 -1.417191624641419
-10.94673538208008 8.34219741821289 0.7212941646575928
-5.871273040771484 4.477571964263916 -1.435265302658081
-8.04063606262207 6.134199142456055 0.8848050832748413
-7.37478494644165 5.630294799804688 -1.469545364379883
-6.090368747711182 4.65307092666626 0.9410750865936279
-10.85584545135498 8.296918869018555 -1.677653431892395
-4.878203392028809 3.731017351150513 0.9727094769477844
-10.88360595703125 8.330178260803223 -1.1990886926651
-4.017040729522705 3.075705766677856 0.9834295511245728
-10.88997936248779 8.34410285949707 -0.7189913392066956
-3.474880933761597 2.664443254470825 1.010930061340332
-10.88143444061279 8.346600532531738 -0.2393772006034851
-3.313125848770142 2.543169736862183 1.119133591651917
-4.135364532470703 3.191564083099365 -1.399693369865418
-10.85211277008057 8.381417274475098 0.2393423020839691
-4.857605457305908 3.753030300140381 -1.417191624641419
-10.88506889343262 8.415972709655762 0.7210848331451416
-5.858503818511963 4.532868385314941 -1.439844727516174
-8.002342224121094 6.193841934204102 0.8853280544281006
-7.397766590118408 5.73002815246582 -1.482060074806213
-6.051460266113281 4.690611362457275 0.9401001334190369
-10.81962013244629 8.389533996582031 -1.681065678596497
-4.842673301696777 3.757716655731201 0.9708322882652283
-10.8220386505127 8.403512954711914 -1.198740124702454
-3.983067035675049 3.094039678573608 0.9803766012191772
-10.83146190643311 8.41992473602295 -0.7189913392066956
-3.465424060821533 2.6958167552948 1.01362943649292
-10.84025859832764 8.435873031616211 -0.239761158823967
-3.299863338470459 2.569798469543457 1.120686411857605
-4.124587535858154 3.230603933334351 -1.403834462165833
-10.8060245513916 8.46996021270752 0.2396564483642578
-4.830625534057617 3.787694215774536 -1.417191624641419
-10.81356811523438 8.485017776489258 0.7203521132469177
-5.847535133361816 4.591649055480957 -1.445187330245972
-7.957815647125244 6.250946044921875 0.8853280544281006
-7.294454097747803 5.733987331390381 -1.469545364379883
-6.013059616088867 4.730112075805664 0.9393689036369324
-10.765549659729 8.471652030944824 -1.682040691375732
-4.821867942810059 3.797162055969238 0.9720837473869324
-10.77258110046387 8.489370346069336 -1.199960231781006
-3.962366580963135 3.123677968978882 0.9807582497596741
-10.77406883239746 8.499691009521484 -0.7192007303237915
-3.432278633117676 2.709677934646606 1.009580373764038
-10.78746223449707 8.519424438476562 -0.2399356812238693
-3.285936832427979 2.596939325332642 1.122239351272583
-4.107983589172363 3.264127254486084 -1.40590500831604
-10.75758647918701 8.553905487060547 0.2399007827043533
-4.804064750671387 3.821325540542603 -1.417191624641419
-10.75875663757324 8.564034461975098 0.7206661105155945
-5.803052425384522 4.622574806213379 -1.442134380340576
-7.912424087524414 6.305108070373535 0.8851537108421326
-7.2666015625 5.79462480545044 -1.472048282623291
-5.984545707702637 4.77569055557251 0.9401001334190369
-10.69062995910645 8.534217834472656 -1.679603338241577
-4.790611267089844 3.827033519744873 0.9711451530456543
-10.71927738189697 8.56934642791748 -1.200657486915588
-3.945062637329102 3.154942750930786 0.981903076171875
-10.72694301605225 8.584684371948242 -0.7200380563735962
-3.408715009689331 2.729918956756592 1.008230566978455
-10.71835899353027 8.587024688720703 -0.239726260304451
-3.273755788803101 2.6246497631073 1.124309897422791
-4.079653263092041 3.28716516494751 -1.403834462165833
-10.7053394317627 8.631952285766602 0.2400403916835785
-4.777942657470703 3.853937149047852 -1.417191624641419
-10.71109294891357 8.64585018157959 0.7213988304138184
-5.74701738357544 4.642229080200195 -1.436028480529785
-9.126121520996094 7.374377250671387 1.026520371437073
-7.245422840118408 5.858857154846191 -1.475802779197693
-5.951900482177734 4.816314697265625 0.9401001334190369
-10.66315078735352 8.631768226623535 -1.684478044509888
-4.758310794830322 3.854579448699951 0.9698936939239502
-10.66065979003906 8.638995170593262 -1.200483202934265
-3.929595947265625 3.186668872833252 0.9834295511245728
-10.67601490020752 8.663793563842773 -0.7205614447593689
-3.390534639358521 2.752466201782227 1.008230566978455
-10.6782865524292 8.67491340637207 -0.2401451170444489
-3.249818801879883 2.641998052597046 1.122239351272583
-4.056605339050293 3.315566301345825 -1.403834462165833
-10.64478874206543 8.703354835510254 0.2400054931640625
-4.762986660003662 3.897071599960327 -1.420790910720825
-10.66126823425293 8.726147651672363 0.7220268249511719
-5.74869966506958 4.708608150482178 -1.444424152374268
-9.0543851852417 7.42149019241333 1.024254322052002
-7.211485385894775 5.913049221038818 -1.477054238319397
-5.917444705963135 4.855457305908203 0.9398563504219055
-10.64251899719238 8.738753318786621 -1.690815329551697
-4.735016345977783 3.889386415481567 0.9705194234848022
-10.60932445526123 8.720800399780273 -1.201529026031494
-3.896639823913574 3.205294370651245 0.9807582497596741
-10.62296485900879 8.741337776184082 -0.7209801077842712
-3.375749349594116 2.779785633087158 1.009580373764038
-10.60974788665772 8.742892265319824 -0.2399705946445465
-3.231760025024414 2.664057493209839 1.122239351272583
-4.036917686462402 3.345566987991333 -1.404869794845581
-10.58992576599121 8.782563209533691 0.2401451170444489
-4.730350971221924 3.924424409866333 -1.418991208076477
-10.61084651947022 8.809293746948242 0.7227595448493958
-5.71568775177002 4.748626708984375 -1.444424152374268
-8.988336563110352 7.470214366912842 1.022511124610901
-7.15787935256958 5.953145503997803 -1.474551320075989
-5.872722625732422 4.887760639190674 0.9381502270698547
-9.627791404724121 8.015881538391113 -1.538234829902649
-4.709266185760498 3.923612356185913 0.9708322882652283
-10.55124855041504 8.794089317321777 -1.201703429222107
-3.871716499328613 3.229228496551514 0.9799950122833252
-10.56781387329102 8.820405960083008 -0.7213988304138184
-3.362733364105225 2.807694911956787 1.011379957199097
-10.56687164306641 8.829010963439941 -0.2403545379638672
-3.219011068344116 2.691510915756226 1.124309897422791
-4.016420841217041 3.37615442276001 -1.40590500831604
-10.54367446899414 8.8660249710083 0.2404592633247376
-4.696874141693115 3.952333927154541 -1.417191624641419
-10.55369377136231 8.88388729095459 0.7229688763618469
-5.68323278427124 4.787421703338623 -1.444424152374268
-8.923779487609863 7.522509098052979 1.021116733551025
-7.123232364654541 6.006823062896729 -1.475802779197693
-9.556428909301758 8.07009220123291 -1.535797476768494
-4.683959007263184 3.956851005554199 0.9711451530456543
-9.56905746459961 8.089343070983887 -1.096244931221008
-3.84757924079895 3.254911422729492 0.9796133637428284
-10.5151538848877 8.898584365844727 -0.7219221591949463
-3.337101697921753 2.826065063476563 1.009580373764038
-10.51107883453369 8.907736778259277 -0.2404941618442535
-3.203563213348389 2.715857982635498 1.125345230102539
-3.999228477478027 3.408427238464356 -1.407975554466248
-10.49521446228027 8.951095581054688 0.2407733947038651
-4.675792694091797 3.989271879196167 -1.418991208076477
-10.49445343017578 8.959942817687988 0.7231782674789429
-5.640716075897217 4.819329261779785 -1.442134380340576
-8.84510612487793 7.559775829315186 1.017979025840759
-7.075119018554688 6.051270008087158 -1.474551320075989
-6.735286712646484 5.764687538146973 1.088536977767944
-9.43342113494873 8.076855659484863 -1.524829268455505
-4.648720741271973 3.983028173446655 0.9695808291435242
-3.831295490264893 3.28613805770874 0.9811398386955261
-10.46338272094727 8.98088264465332 -0.7226548790931702
-3.30152440071106 2.834750175476074 1.004631400108337
-10.45171928405762 8.980380058288574 -0.2405290603637695
-3.188919544219971 2.741935253143311 1.126898169517517
-3.963643789291382 3.426157236099243 -1.403834462165833
-10.44614505767822 9.032790184020996 0.2410526424646378
-4.653723239898682 4.026918411254883 -1.420790910720825
-10.44681358337402 9.042932510375977 0.7241203188896179
-5.622620582580566 4.870466709136963 -1.445950508117676
-7.04570484161377 6.109641075134277 -1.477054238319397
-6.700389862060547 5.814302444458008 1.089268207550049
-9.393292427062988 8.15683364868164 -1.527510404586792
-4.609570980072022 4.004215240478516 0.9670778512954712
-9.058140754699707 7.874121189117432 -1.050052404403687
-3.812704563140869 3.316670656204224 0.9822847247123718
-10.41858386993408 9.06631851196289 -0.7238062620162964
-3.29047155380249 2.865408420562744 1.007330775260925
-10.39329338073731 9.057068824768066 -0.2406337857246399
-3.168725728988648 2.762308359146118 1.126380443572998
-3.943136692047119 3.455603837966919 -1.404869794845581
-10.37681579589844 9.100223541259766 0.2409130185842514
-4.626204967498779 4.058501720428467 -1.420790910720825
-10.39093208312988 9.122232437133789 0.7246436476707458
-5.591431617736816 4.912192821502686 -1.446713805198669
-8.726564407348633 7.669173240661621 1.016410231590271
-7.02068042755127 6.174334526062012 -1.480808615684509
-6.643243789672852 5.846511840820313 1.086587071418762
-9.339043617248535 8.221893310546875 -1.527754068374634
-8.91464900970459 7.856555461883545 -1.039593696594238
-3.779733419418335 3.333456039428711 0.9796133637428284
-10.36551761627197 9.148082733154297 -0.7245389819145203
-3.26943039894104 2.886449575424194 1.006880879402161
-10.36437320709229 9.156730651855469 -0.2414016872644424
-3.146469593048096 2.781803607940674 1.125345230102539
-3.933355808258057 3.495881319046021 -1.410046100616455
-10.32210540771484 9.177288055419922 0.2410875409841538
-4.603582382202148 4.09588098526001 -1.422590494155884
-10.34501075744629 9.207356452941895 0.7257950305938721
-5.552001953125 4.944915294647217 -1.445187330245972
-6.966695308685303 6.211462497711182 -1.478305697441101
-6.594406604766846 5.883665561676025 1.085124611854553
-9.299185752868652 8.302757263183594 -1.530678987503052
-4.552451133728027 4.066073894500732 0.9667649865150452
-8.864039421081543 7.922582626342773 -1.040116667747498
-3.747589588165283 3.351908922195435 0.9773236513137817
-10.30300903320313 9.218426704406738 -0.7245389819145203
-3.253555059432983 2.913103818893433 1.008230566978455
-10.30019474029541 9.228864669799805 -0.2414016872644424
-3.13321590423584 2.808314085006714 1.127415776252747
-3.905984401702881 3.520668983459473 -1.409010887145996
-10.27101898193359 9.264309883117676 0.2414365857839584
-4.56330156326294 4.117475986480713 -1.418991208076477
-10.27886009216309 9.281147003173828 0.7257950305938721
-5.52230167388916 4.989782333374023 -1.446713805198669
-8.628982543945312 7.799619674682617 1.017630457878113
-6.930859088897705 6.269106388092041 -1.480182886123657
-6.534474849700928 5.914717197418213 1.082199811935425
-8.542034149169922 7.734584331512451 -1.414903044700623
-4.533485412597656 4.10783052444458 0.9689550995826721
-8.815895080566406 7.990962028503418 -1.040988206863403
-3.729914426803589 3.38326621055603 0.9788501262664795
-10.24565315246582 9.299970626831055 -0.7251670360565186
-3.227367877960205 2.930506706237793 1.006430983543396
-10.23699474334717 9.301892280578613 -0.2414365857839584
-3.111610651016235 2.829363107681274 1.126898169517517
-3.887634038925171 3.552386999130249 -1.411081433296204
-10.203293800354 9.32995891571045 0.2413318753242493
-4.535882472991943 4.150548934936523 -1.419441103935242
-5.508477210998535 5.045821189880371 -1.452056407928467
-8.571383476257324 7.856978416442871 1.017281770706177
-6.873466968536377 6.302787303924561 -1.477054238319397
-6.480899810791016 5.946979522705078 1.080006122589111
-8.397175788879395 7.71078634262085 -1.399791240692139
-4.492326259613037 4.126566886901856 0.9661392569541931
-9.257147789001465 8.50940227508545 -1.100079774856567
-3.709093809127808 3.411881685256958 0.9796133637428284
-9.708868980407715 8.934019088745117 -0.6914626359939575
-3.2039635181427 2.950326204299927 1.005531191825867
-9.560056686401367 8.809416770935059 -0.2269161939620972
-3.102222919464111 2.85964298248291 1.130521535873413
-3.84856915473938 3.566310405731201 -1.40590500831604
-9.432626724243164 8.746947288513184 0.2245426625013351
-4.50752592086792 4.181327342987061 -1.419441103935242
-9.501458168029785 8.82003402709961 0.6794253587722778
-5.458732604980469 5.070792675018311 -1.448240280151367
-8.506028175354004 7.904289245605469 1.015887379646301
-6.858229637145996 6.377522945404053 -1.483311653137207
-7.60637903213501 7.080663204193115 -1.275972008705139
-4.453290462493897 4.148403167724609 0.9639491438865662
-9.168401718139648 8.543691635131836 -1.096419215202332
-3.69727087020874 3.447760820388794 0.9826663136482239
-9.157085418701172 8.545098304748535 -0.6563975811004639
-3.183807134628296 2.972066402435303 1.005531191825867
-9.115551948547363 8.515274047851562 -0.217736229300499
-3.080772161483765 2.879911422729492 1.130003929138184
-3.826393604278565 3.595737218856812 -1.406940340995789
-9.001335144042969 8.461689949035645 0.2156419306993485
-4.488161087036133 4.222040176391602 -1.422590494155884
-8.997578620910645 8.467037200927734 0.6475004553794861
-5.429808139801025 5.11321496963501 -1.449766755104065
-8.441939353942871 7.955281257629395 1.014841437339783
-6.824722290039063 6.433542251586914 -1.485501646995544
-6.417060852050781 6.053479194641113 1.083174705505371
-6.947601795196533 6.558545112609863 -1.17311429977417
-4.427822589874268 4.181332111358643 0.964574933052063
-8.131067276000977 7.683793067932129 -0.9787589907646179
-3.670258045196533 3.47079062461853 0.981903076171875
-3.167226552963257 2.998239994049072 1.006880879402161
-3.05548906326294 2.895499467849731 1.127933382987976
-3.820141553878784 3.641687631607056 -1.41418731212616
-10.05898189544678 9.595791816711426 0.242658257484436
-4.466292858123779 4.262120723724365 -1.425289869308472
-8.475940704345703 8.094125747680664 0.6142147779464722
-5.400696754455566 5.161017894744873 -1.452056407928467
-8.391997337341309 8.022370338439941 1.015712976455689
-6.780233860015869 6.486127853393555 -1.486127376556397
-4.397053241729736 4.213676929473877 0.964574933052063
-3.626909971237183 3.479296922683716 0.9769420623779297
-3.149907350540161 3.024876594543457 1.008230566978455
-3.046714305877686 2.929870843887329 1.132592082023621
-3.777957439422607 3.652155876159668 -1.407975554466248
-8.10744571685791 7.84021520614624 0.1968631446361542
-4.428026676177979 4.2850661277771 -1.422590494155884
-8.114992141723633 7.855739116668701 0.5919196605682373
-5.35698127746582 5.189463615417481 -1.449766755104065
-8.14123249053955 7.89215898513794 0.9920066595077515
-6.744436264038086 6.540380001068115 -1.488004684448242
-6.322295665740967 6.135295391082764 1.081712245941162
-4.36543607711792 4.240756034851074 0.9639491438865662
-3.609567880630493 3.511377334594727 0.9788501262664795
-7.928359031677246 7.715378761291504 -0.579777717590332
-3.114751815795898 3.033197641372681 1.003731608390808
-7.906856536865234 7.705208778381348 -0.1927094757556915
-3.035000801086426 2.958632230758667 1.135697960853577
-3.76404881477356 3.68860387802124 -1.412116765975952
-7.729841709136963 7.580199241638184 0.1889746636152268
-4.404321193695068 4.320565700531006 -1.424390077590942
-7.70648193359375 7.565211296081543 0.5659610033035278
-5.315019607543945 5.221232414245606 -1.448240280151367
-7.774688243865967 7.640164852142334 0.9536581635475159
-6.700019836425781 6.588690280914307 -1.488317489624023
-6.28072452545166 6.180675983428955 1.081956028938294
-4.325873374938965 4.261425018310547 0.961759090423584
-3.599562168121338 3.549650430679321 0.9826663136482239
-7.527429580688477 7.428238391876221 -0.5542377829551697
-3.098194122314453 3.058435678482056 1.005081295967102
-3.021141052246094 2.986538887023926 1.138286113739014
-3.738206148147583 3.714791774749756 -1.412116765975952
-7.411447048187256 7.367596626281738 0.1824125498533249
-4.378195762634277 4.355331420898438 -1.425739765167236
-7.408473491668701 7.37235689163208 0.5477480888366699
-5.276574611663818 5.254518508911133 -1.447476983070374
-7.412088871002197 7.386260509490967 0.9154839515686035
-6.659214496612549 6.638326644897461 -1.489256143569946
-6.24131965637207 6.22608757019043 1.082443475723267
-6.761767387390137 6.74997615814209 -1.17311429977417
-4.29257345199585 4.28658390045166 0.9608204960823059
-7.152318000793457 7.147326469421387 -0.8846307992935181
-3.567752361297607 3.567752361297607 0.9807582497596741
-7.223939895629883 7.226461887359619 -0.5355014801025391
-3.078144073486328 3.081369161605835 1.005531191825867
-7.2262864112854 7.238909721374512 -0.1785381138324738
-2.993919610977173 3.000196695327759 1.135697960853577
-3.709459543228149 3.738056182861328 -1.411081433296204
-7.086780071258545 7.146400451660156 0.1756759285926819
-4.347683429718018 4.385790824890137 -1.425739765167236
-7.08003044128418 7.147074222564697 0.5272324085235596
-5.247126579284668 5.30051326751709 -1.449766755104065
-7.085660934448242 7.160253047943115 0.8813188672065735
-6.587928771972656 6.661930561065674 -1.483937382698059
-6.193816661834717 6.267765998840332 1.081956028938294
-6.877702713012695 6.962247371673584 -1.201631784439087
-4.267340660095215 4.322813987731934 0.96207195520401
-6.855941772460938 6.94749116897583 -0.8539519906044006
-3.534487009048462 3.584185361862183 0.9784685373306274
-6.909891605377197 7.011945724487305 -0.5159278512001038
-3.059292316436768 3.105560064315796 1.006430983543396
-6.924463272094727 7.034095764160156 -0.1722901612520218
-2.975083589553833 3.024297952651978 1.136733293533325
-3.688677549362183 3.769384622573853 -1.413151979446411
-6.791860103607178 6.942887783050537 0.1695326715707779
-4.31151008605957 4.410461902618408 -1.423940181732178
-6.789724826812744 6.947978973388672 0.5091241598129272
-5.232872486114502 5.358580112457275 -1.455872654914856
-6.791985511779785 6.960006237030029 0.8508143424987793
-6.536912441253662 6.700962543487549 -1.482685804367065
-6.145467281341553 6.304094791412354 1.080981135368347
-6.582367897033691 6.7569899559021 -1.158246278762817
-4.235061168670654 4.348930358886719 0.961446225643158
-6.557158470153809 6.738166332244873 -0.8225759267807007
-3.514853477478027 3.614403247833252 0.9799950122833252
-6.575216293334961 6.763804435729981 -0.4943654537200928
-3.037537097930908 3.126842021942139 1.006430983543396
-6.577114582061768 6.775214672088623 -0.164820522069931
-2.963846683502197 3.0541832447052 1.140356659889221
-3.689769506454468 3.822202920913696 -1.423504710197449
-6.480825901031494 6.718127727508545 0.1629356592893601
-6.425066947937012 6.667309761047363 0.4852589964866638
-6.296875476837158 6.545707702636719 -1.438571333885193
-6.099931240081787 6.345413208007813 1.080737352371216
-6.298266887664795 6.554018974304199 -1.116079449653626
-4.205965042114258 4.379815101623535 0.961759090423584
-6.298656940460205 6.56129789352417 -0.7957319021224976
-3.486092567443848 3.633993864059448 0.9788501262664795
-6.309458255767822 6.581741333007813 -0.4778272807598114
-3.01078987121582 3.141817331314087 1.004631400108337
-6.316469669342041 6.595965385437012 -0.1594102829694748
-2.946459531784058 3.07898736000061 1.141909599304199
-2.450877189636231 2.57457423210144 -0.9524540901184082
-6.219897747039795 6.536103248596191 0.1574905216693878
-6.206148624420166 6.528496742248535 0.4720703363418579
-2.455523729324341 2.584870100021362 -0.6930182576179504
-6.220761775970459 6.553024291992188 0.7905026078224182
-6.06044864654541 6.386380195617676 -1.39445686340332
-6.059330463409424 6.389667510986328 1.081224799156189
-6.053003311157227 6.387459754943848 -1.080493569374085
-4.170621395111084 4.402606010437012 0.9605076313018799
-6.054090023040772 6.395309925079346 -0.7704567909240723
-3.459288597106934 3.656816482543945 0.9784685373306274
-6.064157485961914 6.412666320800781 -0.4625451862812042
-2.986105680465698 3.159927129745483 1.003731608390808
-6.047849178314209 6.404371738433838 -0.1537556946277618
-2.93471622467041 3.108805418014526 1.145533084869385
-6.044363975524902 6.443351268768311 0.1542094647884369
-2.308777332305908 2.462040424346924 -0.7792304754257202
-2.371208906173706 2.532156944274902 -0.6743189692497253
-5.997853755950928 6.407204627990723 0.7678421139717102
-5.994351387023926 6.407945156097412 -1.389763832092285
-5.984984397888184 6.40241003036499 1.076106309890747
-5.994709968566895 6.41505765914917 -1.078056216239929
-4.133617877960205 4.426562786102295 0.959256112575531
-5.992980480194092 6.419941902160645 -0.7683650255203247
-3.443049430847168 3.690926551818848 0.9811398386955261
-2.96662974357605 3.183548212051392 1.004631400108337
-6.008442401885986 6.452291011810303 -0.1538953185081482
-2.912395238876343 3.129725933074951 1.145533084869385
-5.93245792388916 6.410959243774414 0.1524642258882523
-2.296825170516968 2.483821630477905 -0.7810300588607788
-5.932722568511963 6.417983055114746 0.4580442905426025
-2.287310600280762 2.476131916046143 -0.6552380919456482
-5.769185066223145 6.24981689453125 0.7441357374191284
