ply
format ascii 1.0
element vertex 1100
property float x
property float y
property float z
property uchar red
property uchar green
property uchar blue
end_header
-2.1220208 1.5113886 -0.5064071   0   0   0
-8.2576185 5.8835810 0.8870712   0   0   0
-2.5849963 1.8424989 -0.5027804   0   0   0
-8.2463402 5.8798861 1.2435548   0   0   0
-3.2580464 2.3239419 -0.4913772   0   0   0
-8.2274735 5.8685998 1.6006374   0   0   0
-8.2308745 5.8753618 1.9657143   0   0   0
-6.6072189 4.7181051 -0.4254913   0   0   0
-8.2393448 5.8857506 2.3376914   0   0   0
-8.2345074 5.8844659 2.7119060   0   0   0
-7.7772716 5.5741413 0.1670195   0   0   0
-1.8783035 1.3467176 -0.5335839   0   0   0
-7.7755901 5.5770456 0.5014831   0   0   0
-2.1183273 1.5199312 -0.5067887   0   0   0
-8.2143704 5.8961045 0.8846308   0   0   0
-2.5740578 1.8476053 -0.5018418   0   0   0
-8.2138968 5.8979370 1.2416049   0   0   0
-3.2390362 2.3266265 -0.4896710   0   0   0
-8.1957089 5.8892143 1.5984474   0   0   0
-8.2033752 5.8968944 1.9638062   0   0   0
-6.6126167 4.7551481 -0.4268521   0   0   0
-8.2102900 5.9062129 2.3349919   0   0   0
-8.2029417 5.9052730 2.7082825   0   0   0
-7.7007019 5.5641435 0.1658328   0   0   0
-1.8636425 1.3470703 -0.5308845   0   0   0
-7.5802795 5.4791463 0.4901786   0   0   0
-2.1254696 1.5368880 -0.5098416   0   0   0
-8.1910905 5.9250043 0.8844565   0   0   0
-2.5669446 1.8574753 -0.5018418   0   0   0
-8.1831498 5.9236126 1.2403862   0   0   0
-3.2413334 2.3471963 -0.4913772   0   0   0
-8.1756688 5.9203721 1.5987602   0   0   0
-8.1759032 5.9248935 1.9626613   0   0   0
-6.6266505 4.8039490 -0.4289455   0   0   0
-8.1891288 5.9388386 2.3354418   0   0   0
-7.7605879 5.6280564 -0.1673337   0   0   0
-8.1687331 5.9262233 2.7041414   0   0   0
-7.4461311 5.4178774 0.1607367   0   0   0
-1.8528629 1.3486557 -0.5290849   0   0   0
-2.1280264 1.5500774 -0.5117497   0   0   0
-8.1510356 5.9394803 0.8823647   0   0   0
-2.5783322 1.8787740 -0.5052833   0   0   0
-8.1442117 5.9366843 1.2374613   0   0   0
-3.2527792 2.3719674 -0.4943021   0   0   0
-8.1517612 5.9465461 1.5981345   0   0   0
-8.1482812 5.9461867 1.9607532   0   0   0
-6.6316545 4.8412064 -0.4303062   0   0   0
-8.1536523 5.9544692 2.3309428   0   0   0
-8.1433178 5.9512817 2.7025885   0   0   0
-7.5794247 5.5574641 0.1640526   0   0   0
-1.8416220 1.3508274 -0.5272853   0   0   0
-8.0104910 5.8756850 0.5206381   0   0   0
-2.1178541 1.5540119 -0.5106049   0   0   0
-7.6082596 5.5847345 0.8257135   0   0   0
-2.5841666 1.8975648 -0.5077863   0   0   0
-8.1287974 5.9711953 1.2384363   0   0   0
-3.2264676 2.3709432 -0.4916209   0   0   0
-8.1245870 5.9702859 1.5968830   0   0   0
-4.4097897 3.2416831 -0.4788336   0   0   0
-8.1169428 5.9690331 1.9584635   0   0   0
-6.6492601 4.8915177 -0.4326090   0   0   0
-8.1192170 5.9750734 2.3273436   0   0   0
-8.1193829 5.9773803 2.7015532   0   0   0
-7.4612136 5.5089255 0.1618885   0   0   0
-1.8496725 1.3661893 -0.5308845   0   0   0
-8.0798872 5.9700771 0.5264997   0   0   0
-2.1218894 1.5683969 -0.5128946   0   0   0
-2.5778598 1.9061238 -0.5077863   0   0   0
-8.1025677 5.9933965 1.2374613   0   0   0
-3.2090132 2.3745448 -0.4901585   0   0   0
-8.0878202 5.9868569 1.5937543   0   0   0
-4.3984472 3.2570564 -0.4788336   0   0   0
-8.0876375 5.9889070 1.9561738   0   0   0
-6.6554711 4.9301845 -0.4340744   0   0   0
-8.0930955 5.9973239 2.3255440   0   0   0
-7.4731135 5.5399119 -0.1623772   0   0   0
-8.0907098 5.9999322 2.6989650   0   0   0
-7.4964934 5.5755116 0.1630753   0   0   0
-1.8511462 1.3772906 -0.5326841   0   0   0
-8.0536357 5.9920693 0.5260810   0   0   0
-2.1182516 1.5765969 -0.5132762   0   0   0
-8.0478932 5.9921623 0.8778326   0   0   0
-2.5585168 1.9056707 -0.5052833   0   0   0
-8.0784139 6.0192711 1.2369738   0   0   0
-3.2452697 2.4189495 -0.4969832   0   0   0
-8.0647550 6.0112831 1.5931286   0   0   0
-8.0666831 6.0171016 1.9561738   0   0   0
-6.1435959 4.5843012 -0.4017308   0   0   0
-8.0689884 6.0232061 2.3246442   0   0   0
-7.4306643 5.5467204 -0.1618536   0   0   0
-8.0552898 6.0151702 2.6937886   0   0   0
-7.6028092 5.6938391 0.1657979   0   0   0
-1.8278536 1.3694004 -0.5272853   0   0   0
-7.8776428 5.9039586 0.5159279   0   0   0
-2.1017397 1.5757376 -0.5106049   0   0   0
-8.0380850 6.0285862 0.8790528   0   0   0
-2.5648256 1.9236264 -0.5077863   0   0   0
-8.0393545 6.0317310 1.2340490   0   0   0
-3.2419933 2.4332727 -0.4977144   0   0   0
-8.0342445 6.0322814 1.5912514   0   0   0
-8.0278480 6.0296700 1.9515944   0   0   0
-6.6696613 5.0113649 -0.4372146   0   0   0
-8.0458548 6.0475890 2.3237444   0   0   0
-8.0265246 6.0374454 2.6912004   0   0   0
-6.1213779 4.6194929 0.1338600   0   0   0
-1.8228222 1.3760907 -0.5272853   0   0   0
-7.5971588 5.7352711 0.4988663   0   0   0
-2.1087600 1.5925297 -0.5136578   0   0   0
-8.0185821 6.0578086 0.8792271   0   0   0
-2.5672136 1.9401601 -0.5096635   0   0   0
-8.0076922 6.0539733 1.2325865   0   0   0
-3.2172203 2.4331646 -0.4952770   0   0   0
-8.0099879 6.0579063 1.5906256   0   0   0
-8.0009979 6.0554987 1.9504496   0   0   0
-6.6958347 5.0695335 -0.4401454   0   0   0
-8.0143145 6.0699784 2.3210450   0   0   0
-7.3965424 5.6020827 -0.1619583   0   0   0
-7.9946225 6.0572599 2.6875770   0   0   0
-6.1235395 4.6530750 0.1342439   0   0   0
-1.8616883 1.4151479 -0.5398825   0   0   0
-7.4514967 5.6662498 0.4905972   0   0   0
-2.1125635 1.6070126 -0.5159475   0   0   0
-7.2918289 5.5488538 0.8016585   0   0   0
-2.5576218 1.9462702 -0.5090377   0   0   0
-7.9796749 6.0744825 1.2313678   0   0   0
-3.2154512 2.4486306 -0.4962520   0   0   0
-7.9809362 6.0798441 1.5890613   0   0   0
-7.9730656 6.0760477 1.9485415   0   0   0
-6.7044002 5.1110837 -0.4418201   0   0   0
-7.9770966 6.0835225 2.3160961   0   0   0
-6.4818522 4.9450032 -0.1423069   0   0   0
-7.9780372 6.0886455 2.6891299   0   0   0
-6.1509007 4.7095266 0.1352212   0   0   0
-1.8193592 1.3935226 -0.5290849   0   0   0
-7.4015462 5.6691509 0.4886085   0   0   0
-2.0944740 1.6048245 -0.5128946   0   0   0
-7.9318190 6.0797031 0.8743464   0   0   0
-2.5504711 1.9556312 -0.5090377   0   0   0
-7.9526319 6.1000642 1.2306366   0   0   0
-3.2068843 2.4598397 -0.4962520   0   0   0
-7.9424261 6.0944379 1.5856197   0   0   0
-7.9491850 6.1040340 1.9481598   0   0   0
-6.7236356 5.1648226 -0.4443323   0   0   0
-7.9532005 6.1115317 2.3156462   0   0   0
-7.9398875 6.1035058 2.6834359   0   0   0
-6.1637561 4.7518746 0.1358495   0   0   0
-1.8363320 1.4162094 -0.5353835   0   0   0
-7.6442151 5.8974723 0.5059840   0   0   0
-2.0888594 1.6121258 -0.5128946   0   0   0
-7.5383617 5.8200057 0.8332089   0   0   0
-2.5596080 1.9761499 -0.5121664   0   0   0
-7.9292175 6.1239757 1.2301492   0   0   0
-3.2139869 2.4831555 -0.4986893   0   0   0
-7.9117264 6.1148770 1.5837425   0   0   0
-7.9149212 6.1195531 1.9447253   0   0   0
-6.7396484 5.2127511 -0.4465304   0   0   0
-7.9313490 6.1366794 2.3151963   0   0   0
-7.4782133 5.7881640 -0.1650649   0   0   0
-7.9063139 6.1217223 2.6792948   0   0   0
-6.1810409 4.8014220 0.1366174   0   0   0
-1.8434391 1.4324963 -0.5389827   0   0   0
-7.6850885 5.9719146 0.5100662   0   0   0
-2.0956194 1.6290468 -0.5159475   0   0   0
-7.8765993 6.1251444 0.8729519   0   0   0
-2.5367562 1.9733891 -0.5090377   0   0   0
-7.8926192 6.1420244 1.2279555   0   0   0
-3.2236610 2.5095516 -0.5016142   0   0   0
-7.8840983 6.1376031 1.5824910   0   0   0
-7.8754024 6.1352498 1.9405275   0   0   0
-6.4227539 5.0053807 -0.4267474   0   0   0
-7.9026561 6.1609154 2.3133966   0   0   0
-7.3239124 5.7097264 -0.1620979   0   0   0
-7.8742334 6.1409669 2.6756713   0   0   0
-6.2107637 4.8576196 0.1376297   0   0   0
-1.8417483 1.4410032 -0.5398825   0   0   0
-7.3732300 5.7709676 0.4907019   0   0   0
-2.0868286 1.6339313 -0.5151843   0   0   0
-7.8677188 6.1624300 0.8743464   0   0   0
-2.5519701 1.9988433 -0.5134179   0   0   0
-7.8581450 6.1571445 1.2257619   0   0   0
-3.2278201 2.5300246 -0.5035641   0   0   0
-7.8610716 6.1638675 1.5821782   0   0   0
-7.8565587 6.1625435 1.9409091   0   0   0
-6.7250905 5.2769364 -0.4479958   0   0   0
-7.8729849 6.1798682 2.3106972   0   0   0
-7.2520357 5.6945024 -0.1609461   0   0   0
-7.8512303 6.1672224 2.6751537   0   0   0
-6.3822689 5.0277637 0.1418183   0   0   0
-1.8367070 1.4474233 -0.5398825   0   0   0
-7.6426925 6.0228504 0.5099616   0   0   0
-2.0891077 1.6469197 -0.5170924   0   0   0
-7.7330359 6.0984227 0.8616217   0   0   0
-2.5527316 2.0138566 -0.5149823   0   0   0
-7.8350464 6.1833073 1.2255181   0   0   0
-3.2189690 2.5412764 -0.5035641   0   0   0
-7.8312856 6.1825577 1.5803010   0   0   0
-7.8211350 6.1789770 1.9374745   0   0   0
-6.7379690 5.3251473 -0.4500892   0   0   0
-7.8299635 6.1903921 2.3043986   0   0   0
-7.4935105 5.9243914 -0.1667403   0   0   0
-7.8307359 6.1932241 2.6751537   0   0   0
-6.6475697 5.2725780 0.1481011   0   0   0
-1.8318971 1.4535061 -0.5398825   0   0   0
-7.3275203 5.8160548 0.4902832   0   0   0
-2.0879587 1.6578645 -0.5182372   0   0   0
-7.8131095 6.2059271 0.8729519   0   0   0
-2.5398522 2.0173962 -0.5137308   0   0   0
-7.8051736 6.2018456 1.2240557   0   0   0
-3.2105241 2.5519369 -0.5035641   0   0   0
-7.7957413 6.1987914 1.5774851   0   0   0
-4.4392138 3.5311101 -0.4962648   0   0   0
-7.4303152 5.9103395 1.8455046   0   0   0
-6.7749730 5.3909878 -0.4537527   0   0   0
-7.8063430 6.2138959 2.3034988   0   0   0
-7.3100950 5.8209640 -0.1631102   0   0   0
-7.7969814 6.2108914 2.6710125   0   0   0
-1.8176782 1.4525923 -0.5371831   0   0   0
-7.7107368 6.1620132 0.5172886   0   0   0
-2.0824496 1.6647793 -0.5182372   0   0   0
-7.7831509 6.2243359 0.8719060   0   0   0
-2.5389647 2.0311857 -0.5149823   0   0   0
-7.7881272 6.2327740 1.2247869   0   0   0
-3.2418878 2.5953844 -0.5099013   0   0   0
-7.7628059 6.2147325 1.5749822   0   0   0
-4.4274798 3.5458116 -0.4962648   0   0   0
-7.3973815 5.9264201 1.8424517   0   0   0
-6.6688375 5.3446575 -0.4478911   0   0   0
-7.7770028 6.2350124 2.3012493   0   0   0
-7.1721776 5.7501094 -0.1604574   0   0   0
-7.7657932 6.2282523 2.6673891   0   0   0
-1.8371440 1.4781578 -0.5443815   0   0   0
-7.4635771 6.0073070 0.5021112   0   0   0
-2.0858008 1.6794257 -0.5205269   0   0   0
-7.6853454 6.1902264 0.8633648   0   0   0
-2.5260615 2.0346376 -0.5137308   0   0   0
-7.7565954 6.2498477 1.2230807   0   0   0
-3.2270812 2.6011376 -0.5089264   0   0   0
-7.7410651 6.2417919 1.5749822   0   0   0
-4.4150756 3.5612448 -0.4962648   0   0   0
-7.7322083 6.2368777 1.9309870   0   0   0
-6.8096213 5.4946717 -0.4585676   0   0   0
-7.6425554 6.1689675 2.2675066   0   0   0
-7.4461105 6.0125465 -0.1670544   0   0   0
-7.7379940 6.2504664 2.6653185   0   0   0
-6.6447482 5.3082314 0.1484502   0   0   0
-7.4578545 6.0457198 0.1675780   0   0   0
-1.8163188 1.4729267 -0.5398825   0   0   0
-7.4166886 6.0144940 0.5004364   0   0   0
-2.0857300 1.6920067 -0.5220534   0   0   0
-7.4166224 6.0187330 0.8356493   0   0   0
-2.5397013 2.0617522 -0.5181109   0   0   0
-7.7263768 6.2745791 1.2221058   0   0   0
-3.2051982 2.6029367 -0.5069765   0   0   0
-7.7242686 6.2751046 1.5762337   0   0   0
-4.4019933 3.5774029 -0.4962648   0   0   0
-7.7097268 6.2677597 1.9313687   0   0   0
-6.8111330 5.5372318 -0.4600331   0   0   0
-7.7272375 6.2842356 2.2994497   0   0   0
-7.4441890 6.0562031 -0.1675082   0   0   0
-7.7120362 6.2763467 2.6642833   0   0   0
-7.3153774 5.9705296 0.1648205   0   0   0
-1.7933101 1.4641523 -0.5344837   0   0   0
-7.5235655 6.1426328 0.5090195   0   0   0
-2.0922720 1.7088491 -0.5251064   0   0   0
-7.3858225 6.0344701 0.8344291   0   0   0
-2.5328504 2.0701628 -0.5181109   0   0   0
-7.3151793 5.9810114 1.1601961   0   0   0
-3.1934753 2.6110382 -0.5064890   0   0   0
-7.6881265 6.2881784 1.5731050   0   0   0
-7.6919383 6.2957785 1.9321319   0   0   0
-6.8406458 5.5990037 -0.4632779   0   0   0
-7.6897699 6.2962453 2.2945008   0   0   0
-7.4998681 6.1429439 -0.1692185   0   0   0
-7.6881921 6.2994375 2.6632480   0   0   0
-7.4340008 6.1128786 0.1679969   0   0   0
-1.8090016 1.4880469 -0.5407823   0   0   0
-7.4994586 6.1688979 0.5089148   0   0   0
-2.0693189 1.7027841 -0.5209086   0   0   0
-7.3605790 6.0589675 0.8340805   0   0   0
-2.5252458 2.0794323 -0.5181109   0   0   0
-7.3529639 6.0570061 1.1697020   0   0   0
-3.1838839 2.6227253 -0.5064890   0   0   0
-7.6558807 6.3087772 1.5712278   0   0   0
-7.6612381 6.3176834 1.9302238   0   0   0
-6.8606954 5.6595442 -0.4661040   0   0   0
-7.1164471 5.8705196 2.1298366   0   0   0
-7.3600842 6.0736605 -0.1665658   0   0   0
-7.5741737 6.2525530 2.6316721   0   0   0
-7.4414151 6.1604505 0.1686252   0   0   0
-1.8310730 1.5164109 -0.5488806   0   0   0
-7.4358897 6.1580637 0.5059840   0   0   0
-2.0772674 1.7209092 -0.5243431   0   0   0
-7.4555002 6.1786929 0.8471538   0   0   0
-2.5244192 2.0928378 -0.5193624   0   0   0
-3.1843371 2.6408723 -0.5079514   0   0   0
-7.3262982 6.0780912 1.5077154   0   0   0
-7.2233403 5.9969326 1.8248972   0   0   0
-6.8833746 5.7167174 -0.4689302   0   0   0
-7.1059355 5.9015567 2.1325360   0   0   0
-7.5906161 6.3063281 -0.1722552   0   0   0
-7.6247123 6.3369051 2.6565187   0   0   0
-7.4510349 6.2145807 0.1693582   0   0   0
-1.8105396 1.5106274 -0.5443815   0   0   0
-7.3825979 6.1596856 0.5038906   0   0   0
-2.0649171 1.7234791 -0.5228166   0   0   0
-7.5536254 6.3068563 0.8609244   0   0   0
-2.5288605 2.1122067 -0.5218654   0   0   0
-3.1868231 2.6627082 -0.5099013   0   0   0
-7.5737594 6.3304001 1.5634060   0   0   0
-7.2163711 6.0359631 1.8287134   0   0   0
-6.9016777 5.7727453 -0.4715470   0   0   0
-7.6163241 6.3727540 2.2927011   0   0   0
-7.5613176 6.3289728 -0.1721156   0   0   0
-7.6014352 6.3648085 2.6565187   0   0   0
-7.5437097 6.3344127 0.1719411   0   0   0
-1.7876142 1.5015822 -0.5389827   0   0   0
-7.3453086 6.1700025 0.5027392   0   0   0
-2.0892516 1.7555773 -0.5304490   0   0   0
-7.5845244 6.3754588 0.8668510   0   0   0
-2.5127709 2.1129531 -0.5199882   0   0   0
-7.5818724 6.3777475 1.2164998   0   0   0
-3.1658229 2.6630386 -0.5079514   0   0   0
-7.5814430 6.3796461 1.5693506   0   0   0
-7.1843016 6.0497437 1.8256605   0   0   0
-6.9237458 5.8303353 -0.4743731   0   0   0
-7.5906781 6.3942091 2.2913514   0   0   0
-7.5846341 6.3913812 -0.1731279   0   0   0
-7.5758558 6.3862454 2.6549658   0   0   0
-7.5547324 6.3865044 0.1726741   0   0   0
-1.7766730 1.5024684 -0.5371831   0   0   0
-7.3293829 6.1981956 0.5030532   0   0   0
-2.0834184 1.7624958 -0.5304490   0   0   0
-7.5511739 6.3902784 0.8654565   0   0   0
-2.4967042 2.1136161 -0.5181109   0   0   0
-7.5470476 6.3913089 1.2143061   0   0   0
-3.1903015 2.7017456 -0.5133137   0   0   0
-7.5451734 6.3919834 1.5662219   0   0   0
-6.9302727 5.8752194 -0.4761525   0   0   0
-7.3791934 6.2580111 2.2337640   0   0   0
-7.5435743 6.3996801 -0.1726741   0   0   0
-7.0626793 5.9938273 2.4820746   0   0   0
-7.5319896 6.4102256 0.1726392   0   0   0
-1.7776161 1.5134050 -0.5389827   0   0   0
-7.4152421 6.3130976 0.5103802   0   0   0
-2.0641105 1.7579385 -0.5270145   0   0   0
-7.5420742 6.4256207 0.8668510   0   0   0
-2.5017089 2.1321345 -0.5206139   0   0   0
-7.4487711 6.3506180 1.2018755   0   0   0
-3.1964307 2.7251891 -0.5157511   0   0   0
-7.4157205 6.3246753 1.5436953   0   0   0
-7.5278025 6.4248076 1.9237363   0   0   0
-6.9259434 5.9111346 -0.4771993   0   0   0
-7.5332830 6.4317579 2.2868524   0   0   0
-7.5040638 6.4090760 -0.1722552   0   0   0
-6.9825446 5.9657644 2.4608515   0   0   0
-7.4390171 6.3805144 0.1710685   0   0   0
-1.7747499 1.5227573 -0.5398825   0   0   0
-7.4349045 6.3792397 0.5134157   0   0   0
-2.0662838 1.7735232 -0.5293041   0   0   0
-7.5037414 6.4428515 0.8652822   0   0   0
-2.5204767 2.1648924 -0.5262455   0   0   0
-7.1548213 6.1476023 1.1582462   0   0   0
-3.2070222 2.7555540 -0.5191634   0   0   0
-7.2999998 6.2745583 1.5246103   0   0   0
-6.8675263 5.9070045 1.7607854   0   0   0
-7.1212388 6.1252316 -0.4922720   0   0   0
-7.5070541 6.4593651 2.2864025   0   0   0
-7.4824306 6.4404512 -0.1723251   0   0   0
-7.2391994 6.2332915 2.5597204   0   0   0
-7.4647371 6.4456621 0.1721505   0   0   0
-1.8581750 1.6050659 -0.5668767   0   0   0
-7.4363812 6.4234433 0.5149858   0   0   0
-2.0633622 1.7829327 -0.5300674   0   0   0
-7.4763056 6.4624877 0.8645850   0   0   0
-2.5102953 2.1706545 -0.5256198   0   0   0
-7.2499994 6.2712925 1.1770141   0   0   0
-3.1888587 2.7583817 -0.5177010   0   0   0
-7.2836338 6.3026092 1.5255489   0   0   0
-6.9428862 6.0119960 1.7852090   0   0   0
-7.0646509 6.1174347 -0.4897599   0   0   0
-7.4738091 6.4740165 2.2828033   0   0   0
-7.0499727 6.1090319 -0.1628310   0   0   0
-7.4651879 6.4711111 2.6472012   0   0   0
-7.4463399 6.4730045 0.1722203   0   0   0
-1.7940218 1.5600692 -0.5488806   0   0   0
-7.4014753 6.4362727 0.5140438   0   0   0
-2.0678071 1.7987849 -0.5327387   0   0   0
-7.4262773 6.4623942 0.8612730   0   0   0
-2.4822244 2.1608090 -0.5212396   0   0   0
-7.2980266 6.3552676 1.1882261   0   0   0
-3.1916703 2.7793704 -0.5196509   0   0   0
-7.1539617 6.2320087 1.5027095   0   0   0
-7.1374952 6.2220477 1.8405436   0   0   0
-7.0381196 6.1375802 2.1559309   0   0   0
-7.0763894 6.1731280 -0.1639130   0   0   0
-7.3796436 6.4399420 2.6244251   0   0   0
-7.4142998 6.4884434 0.1719760   0   0   0
-1.8005687 1.5762787 -0.5524798   0   0   0
-7.4116493 6.4884085 0.5162419   0   0   0
-2.0618308 1.8056321 -0.5327387   0   0   0
-7.4392752 6.5171815 0.8652822   0   0   0
-2.4928727 2.1846517 -0.5249941   0   0   0
-7.3933423 6.4815047 1.2072377   0   0   0
-3.1884068 2.7951734 -0.5206258   0   0   0
-7.3827643 6.4745105 1.5552715   0   0   0
-4.4138055 3.8721665 -0.5136960   0   0   0
-7.4104674 6.5033831 1.9164855   0   0   0
-6.9718159 6.1205794 -0.4862010   0   0   0
-7.0792356 6.2148834 2.1748268   0   0   0
-7.1535441 6.2823303 -0.1661818   0   0   0
-7.4133980 6.5128293 2.6440954   0   0   0
-7.3956915 6.5247687 0.1721505   0   0   0
-1.8029932 1.5912309 -0.5551792   0   0   0
-7.3900359 6.5220732 0.5165559   0   0   0
-2.0648682 1.8229897 -0.5354100   0   0   0
-7.3996135 6.5351220 0.8637134   0   0   0
-2.4826025 2.1933332 -0.5246812   0   0   0
-7.2928926 6.4454020 1.1950508   0   0   0
-3.1771606 2.8079500 -0.5206258   0   0   0
-7.1347255 6.3078334 1.5083411   0   0   0
-4.3982261 3.8898534 -0.5136960   0   0   0
-6.9318088 6.1327464 -0.4850496   0   0   0
-7.0089923 6.2032138 2.1608798   0   0   0
-7.1956426 6.3706460 -0.1677525   0   0   0
-6.7016950 5.9354174 2.3987349   0   0   0
-7.3605577 6.5373066 0.1718364   0   0   0
-1.8355837 1.6308536 -0.5668767   0   0   0
-7.3638881 6.5425639 0.5162419   0   0   0
-2.0602790 1.8311313 -0.5357917   0   0   0
-7.0458587 6.2644079 0.8248420   0   0   0
-2.4812196 2.2068049 -0.5259327   0   0   0
-7.3426660 6.5328871 1.2067502   0   0   0
-3.1737639 2.8237484 -0.5216008   0   0   0
-7.1329513 6.3485313 1.5124084   0   0   0
-4.3972071 3.9150161 -0.5150904   0   0   0
-7.0767131 6.3029061 1.8420700   0   0   0
-6.9099423 6.1543710 -0.4849450   0   0   0
-7.0407633 6.2730913 2.1770763   0   0   0
-7.2132905 6.4290661 -0.1686601   0   0   0
-7.0136230 6.2533032 2.5177917   0   0   0
-7.3328759 6.5563477 0.1716968   0   0   0
-1.7720650 1.5849656 -0.5488806   0   0   0
-7.3525724 6.5762680 0.5169746   0   0   0
-2.0498061 1.8340261 -0.5346468   0   0   0
-6.9374561 6.2093410 0.8145576   0   0   0
-2.4709446 2.2123855 -0.5253069   0   0   0
-6.9601630 6.2340420 1.1472780   0   0   0
-3.1643826 2.8342575 -0.5216008   0   0   0
-7.2825207 6.5250607 1.5487012   0   0   0
-7.1230126 6.3866270 1.8596245   0   0   0
-6.8854438 6.1757865 -0.4847356   0   0   0
-7.2099636 6.4668593 2.2360135   0   0   0
-7.2797466 6.5317431 -0.1707194   0   0   0
-7.1164878 6.3875016 2.5623085   0   0   0
-7.3110939 6.5806284 0.1716968   0   0   0
-1.7667993 1.5908332 -0.5488806   0   0   0
-7.3158818 6.5872495 0.5159279   0   0   0
-2.0583005 1.8539527 -0.5384630   0   0   0
-7.1610548 6.4523704 0.8433190   0   0   0
-2.4694637 2.2258575 -0.5265584   0   0   0
-6.9704119 6.2850041 1.1523965   0   0   0
-3.1844521 2.8713217 -0.5264756   0   0   0
-6.9718759 6.2885306 1.4870660   0   0   0
-7.0493291 6.3628563 1.8458862   0   0   0
-6.8604791 6.1945700 -0.4844216   0   0   0
-6.8022972 6.1420355 2.1158896   0   0   0
-7.2892097 6.5839959 -0.1714524   0   0   0
-6.8716585 6.2090199 2.4815570   0   0   0
-7.2842911 6.6073089 0.1716619   0   0   0
-1.7808824 1.6159387 -0.5551792   0   0   0
-7.2683480 6.5951601 0.5143578   0   0   0
-2.0540741 1.8644814 -0.5392262   0   0   0
-7.0491996 6.4007970 0.8330346   0   0   0
-2.4725965 2.2459485 -0.5290614   0   0   0
-7.0240938 6.3824754 1.1653147   0   0   0
-3.1498969 2.8621684 -0.5225757   0   0   0
-6.8745910 6.2488198 1.4714226   0   0   0
-6.9318974 6.3053301 1.8214627   0   0   0
-6.8451162 6.2263929 -0.4849450   0   0   0
-7.2413364 6.5891091 2.2603082   0   0   0
-6.8882596 6.2700320 -0.1625866   0   0   0
-7.2720029 6.6216551 2.6352955   0   0   0
-6.9537132 6.3496127 0.1643668   0   0   0
-1.7755140 1.6218354 -0.5551792   0   0   0
-7.0163921 6.4090924 0.4980290   0   0   0
-2.0362854 1.8606880 -0.5361733   0   0   0
-7.0838173 6.4752191 0.8396584   0   0   0
-2.4738818 2.2621337 -0.5309386   0   0   0
-7.0512263 6.4499474 1.1733580   0   0   0
-3.1638240 2.8940354 -0.5264756   0   0   0
-7.1394684 6.5329540 1.5327449   0   0   0
-7.2570044 6.6451606 1.9126694   0   0   0
-6.8347421 6.2584996 -0.4856777   0   0   0
-7.0843690 6.4893539 2.2180174   0   0   0
-6.8585836 6.2847340 -0.1623772   0   0   0
-7.2443083 6.6405120 2.6332250   0   0   0
-7.1305497 6.5591738 0.1691138   0   0   0
-1.7695577 1.6283321 -0.5551792   0   0   0
-7.2133101 6.6376272 0.5137297   0   0   0
-2.0294520 1.8681389 -0.5361733   0   0   0
-7.1904797 6.6212556 0.8551722   0   0   0
-2.4713857 2.2765392 -0.5321900   0   0   0
-7.2114751 6.6452422 1.2040691   0   0   0
-3.1794722 2.9298254 -0.5308629   0   0   0
-7.1358101 6.5778216 1.5371251   0   0   0
-4.4629641 4.1154212 -0.5311271   0   0   0
-7.2138401 6.6544093 1.9077083   0   0   0
-6.8323104 6.3024670 -0.4871431   0   0   0
-6.9030938 6.3722227 -0.1639828   0   0   0
-7.2028895 6.6512919 2.6270133   0   0   0
-7.1923920 6.6602280 0.1711034   0   0   0
-1.8013183 1.6686231 -0.5668767   0   0   0
-7.2029810 6.6723691 0.5145671   0   0   0
-2.0376462 1.8882027 -0.5399895   0   0   0
-7.2035513 6.6775711 0.8593556   0   0   0
-2.4551321 2.2766631 -0.5303128   0   0   0
-6.8022776 6.3100133 1.1392346   0   0   0
-3.1377215 2.9106523 -0.5255006   0   0   0
-7.1907013 6.6726631 1.5537071   0   0   0
-4.3967243 4.0814004 -0.5248519   0   0   0
-7.1802246 6.6676073 1.9046554   0   0   0
-6.9123582 6.4188646 -0.4943654   0   0   0
-7.2087968 6.6964832 2.2715557   0   0   0
-6.8921788 6.4046078 -0.1642271   0   0   0
-7.1793785 6.6738256 2.6264957   0   0   0
-7.1647122 6.6812022 0.1709987   0   0   0
-1.7498832 1.6323636 -0.5524798   0   0   0
-7.1796462 6.6974715 0.5145671   0   0   0
-2.0382196 1.9020011 -0.5418975   0   0   0
-7.1816548 6.7040351 0.8595299   0   0   0
-2.4616077 2.2987013 -0.5334415   0   0   0
-7.1617238 6.6901095 1.2033379   0   0   0
-3.1565548 2.9486892 -0.5303754   0   0   0
-7.0648922 6.6019639 1.5314934   0   0   0
-7.1440009 6.6805619 1.9012208   0   0   0
-6.8039793 6.3648241 2.1509820   0   0   0
-6.9208841 6.4764488 -0.1654488   0   0   0
-7.1574491 6.7001659 2.6270133   0   0   0
-7.1454330 6.7076618 0.1710685   0   0   0
-1.7671896 1.6595015 -0.5596782   0   0   0
-7.1428377 6.7075711 0.5135204   0   0   0
-2.0233156 1.9006845 -0.5396078   0   0   0
-7.1187304 6.6896105 0.8546492   0   0   0
-2.4654856 2.3176756 -0.5359445   0   0   0
-7.1423915 6.7165417 1.2038254   0   0   0
-3.1496515 2.9618603 -0.5308629   0   0   0
-7.1336053 6.7106257 1.5512042   0   0   0
-4.4210761 4.1603878 -0.5311271   0   0   0
-7.1403917 6.7217094 1.9061819   0   0   0
-7.1244577 6.7067097 -0.5127877   0   0   0
-7.1417681 6.7253566 2.2648072   0   0   0
-6.8950027 6.4952502 -0.1653441   0   0   0
-7.1239436 6.7132648 2.6228722   0   0   0
-7.1222532 6.7351800 0.1711034   0   0   0
-1.7554327 1.6606106 -0.5578786   0   0   0
-7.1153034 6.7309608 0.5133111   0   0   0
-2.0277435 1.9188829 -0.5426608   0   0   0
-6.8062303 6.4430860 0.8199612   0   0   0
-2.4569743 2.3266965 -0.5359445   0   0   0
-7.1134028 6.7385792 1.2030942   0   0   0
-3.1935374 3.0252616 -0.5401249   0   0   0
-7.1046602 6.7326504 1.5502655   0   0   0
-4.4057978 4.1765639 -0.5311271   0   0   0
-7.1085846 6.7410805 1.9042738   0   0   0
-7.1030003 6.7381399 -0.5131017   0   0   0
-7.1142428 6.7488049 2.2639074   0   0   0
-6.9494786 6.5948090 -0.1672290   0   0   0
-7.1048947 6.7446505 2.6249428   0   0   0
-7.0926375 6.7518673 0.1709289   0   0   0
-1.7781407 1.6933005 -0.5668767   0   0   0
-7.0958364 6.7572736 0.5135204   0   0   0
-2.0227906 1.9269508 -0.5430424   0   0   0
-7.0963750 6.7625116 0.8576125   0   0   0
-2.4492452 2.3348313 -0.5359445   0   0   0
-7.0938909 6.7648709 1.2035816   0   0   0
-3.1834877 3.0358352 -0.5401249   0   0   0
-7.0808655 6.7548097 1.5499527   0   0   0
-4.3919236 4.1911511 -0.5311271   0   0   0
-6.9782653 6.6615882 1.8752708   0   0   0
-7.0748390 6.7561398 -0.5126830   0   0   0
-7.0904145 6.7710136 2.2634575   0   0   0
-6.9796256 6.6675449 -0.1684855   0   0   0
-7.0643330 6.7508232 2.6182135   0   0   0
-7.0620698 6.7722815 0.1707893   0   0   0
-1.7719225 1.6998063 -0.5668767   0   0   0
-7.0652569 6.7777052 0.5131017   0   0   0
-2.0213805 1.9397891 -0.5445689   0   0   0
-7.0686669 6.7857161 0.8572639   0   0   0
-2.4292729 2.3328467 -0.5334415   0   0   0
-6.9459345 6.6725572 1.1826201   0   0   0
-3.1580238 3.0337307 -0.5376875   0   0   0
-7.0560603 6.7807170 1.5499527   0   0   0
-4.3765327 4.2072201 -0.5311271   0   0   0
-7.0599350 6.7891823 1.9038922   0   0   0
-6.7877639 6.5274491 -0.4935281   0   0   0
-7.0697631 6.8010089 2.2648072   0   0   0
-7.0401531 6.7748907 -0.1705449   0   0   0
-7.0339755 6.7713108 2.6161429   0   0   0
-7.0309411 6.7873298 0.1705798   0   0   0
-1.7382399 1.6785987 -0.5578786   0   0   0
-7.0398689 6.7983224 0.5128924   0   0   0
-2.0205848 1.9519377 -0.5460953   0   0   0
-7.0432603 6.8063503 0.8569153   0   0   0
-2.4385665 2.3573651 -0.5371959   0   0   0
-7.0336478 6.8018108 1.2013880   0   0   0
-3.1450923 3.0414264 -0.5372001   0   0   0
-7.0321161 6.8027050 1.5496398   0   0   0
-4.3911921 4.2494207 -0.5346133   0   0   0
-7.0148132 6.7907083 1.8977863   0   0   0
-7.0331721 6.8108590 2.2603082   0   0   0
-6.7935888 6.5811468 -0.1650998   0   0   0
-7.0198062 6.8026654 2.6192487   0   0   0
-7.0074507 6.8144480 0.1706147   0   0   0
-1.7600125 1.7121352 -0.5668767   0   0   0
-7.0034516 6.8129378 0.5120550   0   0   0
-2.0134170 1.9593304 -0.5460953   0   0   0
-7.0111283 6.8251706 0.8560437   0   0   0
-2.4355707 2.3717996 -0.5384474   0   0   0
-7.0015610 6.8206188 1.2001693   0   0   0
-3.1083291 3.0280001 -0.5328128   0   0   0
-6.9958179 6.8174042 1.5471369   0   0   0
-4.3755877 4.2654867 -0.5346133   0   0   0
-7.0039325 6.8300800 1.9016024   0   0   0
-6.7866304 6.6204831 -0.4968776   0   0   0
-6.9997922 6.8284264 2.2576088   0   0   0
-6.7679909 6.6046057 -0.1650649   0   0   0
-6.9975908 6.8310476 2.6202840   0   0   0
-6.9876726 6.8404458 0.1706845   0   0   0
-1.7543252 1.7179622 -0.5668767   0   0   0
-6.9765396 6.8319324 0.5117410   0   0   0
-1.9956890 1.9550055 -0.5430424   0   0   0
-6.9927257 6.8525663 0.8565666   0   0   0
-2.4559048 2.4075200 -0.5447048   0   0   0
-6.9803219 6.8451892 1.2004130   0   0   0
-3.1407905 3.0799877 -0.5401249   0   0   0
-6.9633011 6.8308823 1.5449468   0   0   0
-6.9686355 6.8408904 1.8981679   0   0   0
-6.7703389 6.6485496 -0.4972963   0   0   0
-6.9659865 6.8406778 2.2540096   0   0   0
-6.8687335 6.7475295 -0.1680667   0   0   0
-6.9652545 6.8447365 2.6166605   0   0   0
-6.9509357 6.8521611 0.1703704   0   0   0
-1.7483177 1.7240754 -0.5668767   0   0   0
-6.9583376 6.8618529 0.5121597   0   0   0
-1.9986361 1.9716111 -0.5457137   0   0   0
-6.9602543 6.8685370 0.8555208   0   0   0
-2.4193701 2.3883230 -0.5384474   0   0   0
-6.9606226 6.8736978 1.2011442   0   0   0
-3.1243704 3.0853530 -0.5391500   0   0   0
-6.9394144 6.8551472 1.5449468   0   0   0
-4.4229794 4.3707955 -0.5440261   0   0   0
-6.9516949 6.8720749 1.9000760   0   0   0
-6.7439931 6.6667519 -0.4969822   0   0   0
-6.9448370 6.8676924 2.2549094   0   0   0
-6.8991602 6.8249052 -0.1693931   0   0   0
-6.9317073 6.8594961 2.6130371   0   0   0
-6.9182389 6.8653136 0.1701261   0   0   0
-1.7425908 1.7298636 -0.5668767   0   0   0
-6.7725388 6.7230746 0.5001224   0   0   0
-1.9976593 1.9837615 -0.5472402   0   0   0
-6.9317852 6.8859636 0.8548235   0   0   0
-2.4170416 2.4019024 -0.5396989   0   0   0
-6.9279355 6.8869458 1.1994381   0   0   0
-3.1338314 3.1152898 -0.5425623   0   0   0
-6.9180445 6.8795143 1.5452596   0   0   0
-4.4451864 4.4219722 -0.5485582   0   0   0
-6.9066022 6.8729324 1.8939701   0   0   0
-6.6638037 6.6313175 -0.4926907   0   0   0
-6.9275490 6.8961839 2.2567090   0   0   0
-6.7305436 6.7024096 -0.1657979   0   0   0
-6.9061850 6.8797180 2.6120018   0   0   0
-6.8788874 6.8764866 0.1697770   0   0   0
-1.7362389 1.7362389 -0.5668767   0   0   0
-6.8001062 6.8001062 0.5039953   0   0   0
-2.0000909 2.0007892 -0.5499115   0   0   0
-6.8896002 6.8944117 0.8527318   0   0   0
-2.4249748 2.4275155 -0.5434533   0   0   0
-6.8984390 6.9080777 1.1987069   0   0   0
-3.1139761 3.1183271 -0.5410999   0   0   0
-6.8941789 6.9062220 1.5455725   0   0   0
-4.3670255 4.3761814 -0.5408885   0   0   0
-6.8924575 6.9093196 1.8970230   0   0   0
-6.8820684 6.8989050 -0.5106943   0   0   0
-6.8967226 6.9160088 2.2549094   0   0   0
-6.8287572 6.8502442 -0.1688346   0   0   0
-6.8822868 6.9063526 2.6125194   0   0   0
-6.8659131 6.9091891 0.1700213   0   0   0
-1.7030039 1.7143363 -0.5578786   0   0   0
-6.7732961 6.8183679 0.5036812   0   0   0
-1.9851448 1.9990524 -0.5476218   0   0   0
-6.8091496 6.8592471 0.8455850   0   0   0
-2.4113458 2.4299351 -0.5422019   0   0   0
-6.8643088 6.9196414 1.1967570   0   0   0
-3.1175985 3.1427292 -0.5435373   0   0   0
-6.8656754 6.9234354 1.5443210   0   0   0
-6.8612160 6.9237707 1.8947333   0   0   0
-6.8535295 6.9160142 -0.5102756   0   0   0
-6.8627787 6.9277656 2.2513102   0   0   0
-6.8791712 6.9467378 -0.1706496   0   0   0
-6.8607058 6.9305100 2.6130371   0   0   0
-6.8517783 6.9456962 0.1703006   0   0   0
-1.7240754 1.7483177 -0.5668767   0   0   0
-6.5547314 6.6468976 0.4892365   0   0   0
-1.9833176 2.0119074 -0.5491483   0   0   0
-6.8287144 6.9295697 0.8511630   0   0   0
-2.4107411 2.4472003 -0.5440791   0   0   0
-6.8472581 6.9532404 1.1982194   0   0   0
-3.0949161 3.1428194 -0.5415874   0   0   0
-6.8291673 6.9372910 1.5418181   0   0   0
-4.3978568 4.4690464 -0.5485582   0   0   0
-6.8454306 6.9586688 1.8974047   0   0   0
-6.8281350 6.9410871 -0.5102756   0   0   0
-6.8400738 6.9556513 2.2522100   0   0   0
-6.8298324 6.9476619 -0.1700562   0   0   0
-6.8284879 6.9487197 2.6104489   0   0   0
-6.6929455 6.8298401 0.1669148   0   0   0
-1.7182683 1.7540253 -0.5668767   0   0   0
-6.8010038 6.9425320 0.5093335   0   0   0
-1.9807559 2.0226813 -0.5502931   0   0   0
-6.8168476 6.9635665 0.8525575   0   0   0
-2.3984679 2.4509456 -0.5431405   0   0   0
-6.8158337 6.9673943 1.1967570   0   0   0
-3.0983586 3.1672554 -0.5440247   0   0   0
-6.8061249 6.9598992 1.5418181   0   0   0
-6.8058514 6.9644813 1.8928252   0   0   0
-6.7883290 6.9465505 -0.5090195   0   0   0
-6.8142469 6.9755076 2.2513102   0   0   0
-6.8123440 6.9759950 -0.1701959   0   0   0
-6.7986602 6.9644137 2.6078607   0   0   0
-6.7441882 6.9279394 0.1687648   0   0   0
-1.7124423 1.7597137 -0.5668767   0   0   0
-6.4728948 6.6515768 0.4864104   0   0   0
-1.9767754 2.0320531 -0.5510564   0   0   0
-6.8048303 6.9975606 0.8539520   0   0   0
-2.3875732 2.4560529 -0.5425147   0   0   0
-6.7982253 6.9956526 1.1977319   0   0   0
-3.1210412 3.2116793 -0.5498745   0   0   0
-6.7802547 6.9795971 1.5411923   0   0   0
-4.4180894 4.5495716 -0.5548335   0   0   0
-6.7786165 6.9827860 1.8916804   0   0   0
-6.4719467 6.6692080 -0.4870384   0   0   0
-6.7910778 6.9980661 2.2513102   0   0   0
-6.7836039 6.9928060 -0.1700562   0   0   0
-6.7782177 6.9896943 2.6088960   0   0   0
-6.7086662 6.9373284 0.1684506   0   0   0
-1.6849264 1.7429651 -0.5596782   0   0   0
-6.7339874 6.9659453 0.5077635   0   0   0
-1.9672975 2.0357736 -0.5502931   0   0   0
-6.7760510 7.0143559 0.8532547   0   0   0
-2.3986265 2.4838504 -0.5468949   0   0   0
-6.7639598 7.0067323 1.1957820   0   0   0
-3.1241608 3.2362934 -0.5523119   0   0   0
-6.7570723 7.0020429 1.5411923   0   0   0
-4.3753126 4.5355189 -0.5513472   0   0   0
-6.7540607 7.0038131 1.8912988   0   0   0
-6.4317752 6.6719402 -0.4856777   0   0   0
-6.7624241 7.0149357 2.2495105   0   0   0
-6.7617652 7.0167027 -0.1700911   0   0   0
-6.7550018 7.0121332 2.6088960   0   0   0
-6.5488660 6.8219405 0.1650649   0   0   0
-1.7001156 1.7716258 -0.5668767   0   0   0
-6.7346857 7.0179599 0.5097522   0   0   0
-1.9625410 2.0458039 -0.5510564   0   0   0
-6.6868618 6.9729950 0.8452364   0   0   0
-2.3731027 2.4755133 -0.5431405   0   0   0
-6.7354865 7.0286099 1.1952945   0   0   0
-3.0793150 3.2133245 -0.5464621   0   0   0
-6.7340961 7.0296147 1.5418181   0   0   0
-4.3366115 4.5285009 -0.5485582   0   0   0
-6.7351331 7.0356118 1.8932069   0   0   0
-6.4056843 6.6914651 -0.4854683   0   0   0
-6.7366677 7.0396741 2.2495105   0   0   0
-6.4775101 6.7712254 -0.1635640   0   0   0
-6.7279205 7.0354483 2.6083783   0   0   0
-6.4792862 6.7944164 0.1638781   0   0   0
-1.6942313 1.7772538 -0.5668767   0   0   0
-6.5873467 6.9101470 0.5003317   0   0   0
-1.9571005 2.0537220 -0.5514380   0   0   0
-6.7255426 7.0600477 0.8530804   0   0   0
-2.3812276 2.5005353 -0.5468949   0   0   0
-6.7094043 7.0480314 1.1948070   0   0   0
-3.1699266 3.3299144 -0.5644988   0   0   0
-6.6971305 7.0375972 1.5386894   0   0   0
-4.3902323 4.6150343 -0.5572738   0   0   0
-6.7036477 7.0493716 1.8909171   0   0   0
-6.3930937 6.7228016 -0.4862010   0   0   0
-6.7038876 7.0520882 2.2463612   0   0   0
-6.6368518 6.9840112 -0.1681714   0   0   0
-6.7032226 7.0563196 2.6078607   0   0   0
-6.4873334 6.8529715 0.1647158   0   0   0
-1.6877060 1.7834516 -0.5668767   0   0   0
-6.5180460 6.8878227 0.4969822   0   0   0
-1.9576551 2.0694386 -0.5537277   0   0   0
-6.5887365 6.9673935 0.8389612   0   0   0
-2.3639047 2.5006332 -0.5450177   0   0   0
-6.6889806 7.0783464 1.1957820   0   0   0
-3.1577006 3.3415104 -0.5644988   0   0   0
-6.6767174 7.0678400 1.5399409   0   0   0
-4.3732879 4.6310943 -0.5572738   0   0   0
-6.6791131 7.0753220 1.8912988   0   0   0
-6.5235009 6.9128954 -0.4981336   0   0   0
-6.6820078 7.0808637 2.2477109   0   0   0
-6.6729581 7.0737468 -0.1697421   0   0   0
-6.6693625 7.0724078 2.6047549   0   0   0
-6.7070453 7.1322930 0.1708940   0   0   0
-1.6817825 1.7890384 -0.5668767   0   0   0
-6.6442791 7.0680187 0.5083915   0   0   0
-1.9494374 2.0744884 -0.5533461   0   0   0
-6.6174328 7.0443859 0.8455850   0   0   0
-2.3677694 2.5214183 -0.5478335   0   0   0
-6.6613953 7.0961470 1.1950508   0   0   0
-3.0949742 3.2969657 -0.5552367   0   0   0
-6.6505394 7.0870610 1.5393151   0   0   0
-4.3579066 4.6455712 -0.5572738   0   0   0
-6.6462132 7.0874072 1.8886274   0   0   0
-6.6535271 7.0976889 -0.5098569   0   0   0
-6.6611556 7.1058266 2.2486107   0   0   0
-6.6494640 7.0958362 -0.1697421   0   0   0
-6.6471936 7.0958952 2.6052725   0   0   0
-6.6973457 7.1769997 0.1713477   0   0   0
-1.6749007 1.7954828 -0.5668767   0   0   0
-6.4985637 6.9664183 0.4992850   0   0   0
-1.9494912 2.0905734 -0.5556358   0   0   0
-6.6324507 7.1149218 0.8509887   0   0   0
-2.3769242 2.5507237 -0.5522137   0   0   0
-6.6300398 7.1173150 1.1943196   0   0   0
-3.1066472 3.3349705 -0.5596240   0   0   0
-6.6286629 7.1183275 1.5405666   0   0   0
-4.3508971 4.6739367 -0.5586683   0   0   0
-6.6149383 7.1085628 1.8874826   0   0   0
-6.6138621 7.1074063 -0.5088102   0   0   0
-6.6258584 7.1227901 2.2459113   0   0   0
-6.2926266 6.7669342 -0.1612951   0   0   0
-6.6159525 7.1171214 2.6037196   0   0   0
-6.6313664 7.1537071 0.1702657   0   0   0
-1.6742357 1.8067446 -0.5686763   0   0   0
-6.5623085 7.0816884 0.5059840   0   0   0
-1.9478846 2.1027877 -0.5571623   0   0   0
-6.6101740 7.1383386 0.8511630   0   0   0
-2.3630851 2.5527933 -0.5509622   0   0   0
-6.6037050 7.1363479 1.1938321   0   0   0
-3.0874815 3.3365122 -0.5581616   0   0   0
-6.5969729 7.1315693 1.5386894   0   0   0
-4.3489007 4.7029673 -0.5604114   0   0   0
-6.5953271 7.1347846 1.8886274   0   0   0
-6.5861895 7.1248997 -0.5084962   0   0   0
-6.5969117 7.1389982 2.2441117   0   0   0
-6.2715089 6.7892330 -0.1613301   0   0   0
-6.5988679 7.1461180 2.6063078   0   0   0
-6.5778068 7.1432957 0.1694978   0   0   0
-1.6523974 1.7950814 -0.5632774   0   0   0
-6.4968561 7.0578574 0.5027392   0   0   0
-1.9315951 2.0991228 -0.5544909   0   0   0
-5.5964054 6.0839137 0.7232184   0   0   0
-2.3653034 2.5722481 -0.5534651   0   0   0
-6.5800037 7.1582073 1.1938321   0   0   0
-3.1113288 3.3847301 -0.5644988   0   0   0
-6.5706143 7.1504973 1.5380637   0   0   0
-4.4033685 4.7936624 -0.5694756   0   0   0
-6.5716310 7.1566163 1.8886274   0   0   0
-6.5625263 7.1467011 -0.5084962   0   0   0
-6.5705661 7.1579638 2.2432119   0   0   0
-6.3774008 6.9499645 -0.1646460   0   0   0
-6.5672989 7.1594196 2.6032020   0   0   0
-6.5527329 7.1635937 0.1694629   0   0   0
-1.6753666 1.8321901 -0.5731753   0   0   0
-6.3992874 6.9982959 0.4969822   0   0   0
-1.9431677 2.1258038 -0.5598336   0   0   0
-5.5654478 6.0906720 0.7218239   0   0   0
-2.3727476 2.5975795 -0.5572196   0   0   0
-6.5589072 7.1829199 1.1943196   0   0   0
-3.1000875 3.3950291 -0.5644988   0   0   0
-6.5415393 7.1664111 1.5368122   0   0   0
-4.3605887 4.7788030 -0.5659894   0   0   0
-6.5452165 7.1754683 1.8878642   0   0   0
-6.5414829 7.1713751 -0.5087055   0   0   0
-6.5533584 7.1869131 2.2454614   0   0   0
-6.3597073 6.9769859 -0.1647856   0   0   0
-6.5370155 7.1740184 2.6006138   0   0   0
-6.5171143 7.1798174 0.1692534   0   0   0
-1.6499860 1.8184051 -0.5668767   0   0   0
-6.4032375 7.0568352 0.4993897   0   0   0
-1.9191627 2.1157994 -0.5552542   0   0   0
-5.5272987 6.0957611 0.7199064   0   0   0
-2.3574495 2.6008166 -0.5559681   0   0   0
-6.5232810 7.1992251 1.1928571   0   0   0
-3.0870287 3.4069075 -0.5644988   0   0   0
-6.5166264 7.1944040 1.5374379   0   0   0
-4.3689533 4.8250493 -0.5694756   0   0   0
-6.5162990 7.1990916 1.8874826   0   0   0
-6.5125583 7.1949589 -0.5086008   0   0   0
-6.5296369 7.2163582 2.2468111   0   0   0
-6.5072561 7.1941470 -0.1693233   0   0   0
-6.5120125 7.2019317 2.6016490   0   0   0
-6.0835065 6.7469400 0.1585726   0   0   0
-1.6830885 1.8672920 -0.5803737   0   0   0
-6.2942199 6.9830830 0.4926907   0   0   0
-1.9279061 2.1396542 -0.5598336   0   0   0
-5.4937198 6.0992528 0.7181633   0   0   0
-2.3540991 2.6144919 -0.5572196   0   0   0
-6.4993716 7.2208175 1.1928571   0   0   0
-3.0491535 3.3876169 -0.5596240   0   0   0
-6.4953756 7.2189113 1.5380637   0   0   0
-4.3422697 4.8276601 -0.5680811   0   0   0
-6.4845142 7.2119015 1.8851929   0   0   0
-6.4859924 7.2135454 -0.5083915   0   0   0
-6.4952491 7.2263769 2.2432119   0   0   0
-6.3416947 7.0580151 -0.1656233   0   0   0
-6.4893851 7.2249239 2.6021667   0   0   0
-6.0077329 6.7074941 0.1571764   0   0   0
-1.6482890 1.8409228 -0.5704759   0   0   0
-6.3389747 7.0798039 0.4980290   0   0   0
-1.9208002 2.1460356 -0.5598336   0   0   0
-5.4003956 6.0357723 0.7085762   0   0   0
-2.3454162 2.6222840 -0.5572196   0   0   0
-6.4780370 7.2452901 1.1933446   0   0   0
-3.0643656 3.4273064 -0.5644988   0   0   0
-6.4687683 7.2374654 1.5374379   0   0   0
-4.3474763 4.8658049 -0.5708701   0   0   0
-6.4657943 7.2392222 1.8867193   0   0   0
-6.4461407 7.2197536 -0.5072401   0   0   0
-6.4686541 7.2449689 2.2423121   0   0   0
-6.4460844 7.2222274 -0.1689742   0   0   0
-6.4628185 7.2435208 2.6011314   0   0   0
-6.0505885 6.8005845 0.1588867   0   0   0
-1.6499458 1.8551154 -0.5731753   0   0   0
-1.9201955 2.1597295 -0.5617417   0   0   0
-5.2982886 5.9613163 0.6977689   0   0   0
-2.3524517 2.6477680 -0.5609740   0   0   0
-3.0529833 3.4374493 -0.5644988   0   0   0
-6.4368634 7.2500137 1.5355607   0   0   0
-4.3418971 4.8921159 -0.5722646   0   0   0
-6.4430555 7.2620923 1.8871010   0   0   0
-6.1107298 6.8899435 -0.4826422   0   0   0
-6.4420073 7.2634640 2.2414123   0   0   0
-6.4419982 7.2660081 -0.1694978   0   0   0
-6.4413252 7.2678039 2.6021667   0   0   0
-5.9767867 6.7698004 0.1576301   0   0   0
-1.6505474 1.8702036 -0.5758747   0   0   0
-6.2987236 7.1369628 0.4988663   0   0   0
-1.9131875 2.1685588 -0.5621233   0   0   0
-5.2661349 5.9711563 0.6965487   0   0   0
-2.3448804 2.6597447 -0.5615997   0   0   0
-5.5007092 6.2415256 1.0215088   0   0   0
-3.0391600 3.4496770 -0.5644988   0   0   0
-6.4115896 7.2776404 1.5361864   0   0   0
-6.4125291 7.2838312 1.8863377   0   0   0
-6.0736733 6.9013616 -0.4818048   0   0   0
-6.4115108 7.2878022 2.2409624   0   0   0
-6.1089348 6.9438717 -0.1614348   0   0   0
-6.4057168 7.2837792 2.5990609   0   0   0
-5.9661708 6.8031140 0.1579443   0   0   0
-1.6186438 1.8463594 -0.5668767   0   0   0
-6.2764053 7.1619101 0.4990757   0   0   0
-1.9172493 2.1885144 -0.5655579   0   0   0
-5.2465722 5.9910010 0.6967230   0   0   0
-2.3360474 2.6675060 -0.5615997   0   0   0
-5.4852116 6.2657067 1.0224838   0   0   0
-3.0277037 3.4597363 -0.5644988   0   0   0
-6.3887481 7.3029502 1.5368122   0   0   0
-4.3557598 4.9808040 -0.5788884   0   0   0
-6.3805854 7.2961887 1.8840480   0   0   0
-6.0402380 6.9094352 -0.4809674   0   0   0
-6.3950024 7.3178277 2.2436618   0   0   0
-6.0807122 6.9606356 -0.1613301   0   0   0
-6.3777112 7.3031847 2.5980256   0   0   0
-6.2312988 7.1556680 0.1656233   0   0   0
-1.6454563 1.8902142 -0.5785741   0   0   0
-5.9496941 6.8346975 0.4748965   0   0   0
-1.9086926 2.1933792 -0.5651762   0   0   0
-5.2292918 6.0113728 0.6970716   0   0   0
-2.3163521 2.6637192 -0.5590968   0   0   0
-5.4541904 6.2743283 1.0207776   0   0   0
-3.0416501 3.5002518 -0.5693736   0   0   0
-6.3619041 7.3211138 1.5361864   0   0   0
-4.3731905 5.0343283 -0.5834205   0   0   0
-6.3550780 7.3184166 1.8840480   0   0   0
-6.0042994 6.9169031 -0.4800254   0   0   0
-6.3643106 7.3342185 2.2418622   0   0   0
-6.0929827 7.0215407 -0.1622725   0   0   0
-6.3509261 7.3213752 2.5969903   0   0   0
-6.2847209 7.2655234 0.1676827   0   0   0
-1.6442776 1.9015566 -0.5803737   0   0   0
-5.8565767 6.7753409 0.4693489   0   0   0
-1.9112936 2.2119124 -0.5682292   0   0   0
-5.2173931 6.0401442 0.6982918   0   0   0
-2.3178363 2.6833450 -0.5615997   0   0   0
-5.3632964 6.2112467 1.0076157   0   0   0
-3.0040841 3.4802649 -0.5644988   0   0   0
-6.3337289 7.3402852 1.5355607   0   0   0
-4.3555908 5.0495629 -0.5834205   0   0   0
-6.3294920 7.3379640 1.8836664   0   0   0
-5.9852419 6.9413139 -0.4803394   0   0   0
-6.3310482 7.3449504 2.2387129   0   0   0
-6.0984582 7.0776091 -0.1630753   0   0   0
-6.3354173 7.3552093 2.6011314   0   0   0
-6.2411144 7.2687860 0.1672290   0   0   0
-1.5992203 1.8632083 -0.5668767   0   0   0
-5.8081751 6.7669474 0.4673601   0   0   0
-1.9073961 2.2230405 -0.5693740   0   0   0
-5.1884945 6.0492456 0.6972459   0   0   0
-2.3388447 2.7278132 -0.5691086   0   0   0
-5.3585809 6.2519636 1.0110281   0   0   0
-3.0125869 3.5148455 -0.5683986   0   0   0
-6.3054974 7.3593492 1.5349350   0   0   0
-4.3431222 5.0707888 -0.5841178   0   0   0
-6.3102157 7.3700613 1.8859561   0   0   0
-5.9714488 6.9768606 -0.4812814   0   0   0
-6.3129534 7.3784706 2.2418622   0   0   0
-6.0178145 7.0335174 -0.1615744   0   0   0
-6.3034259 7.3699386 2.5985432   0   0   0
-6.2117854 7.2833563 0.1670893   0   0   0
-1.6410768 1.9248529 -0.5839729   0   0   0
-5.8402262 6.8525441 0.4718610   0   0   0
-1.8830730 2.2102575 -0.5644130   0   0   0
-5.1763899 6.0779378 0.6984661   0   0   0
-2.3105740 2.7129959 -0.5644155   0   0   0
-5.3481139 6.2817909 1.0129780   0   0   0
-3.0131653 3.5404572 -0.5708360   0   0   0
-6.2772101 7.3783056 1.5343092   0   0   0
-4.3279770 5.0889537 -0.5844664   0   0   0
-6.2793815 7.3834685 1.8840480   0   0   0
-5.9741532 7.0270576 -0.4833749   0   0   0
-6.2808789 7.3904551 2.2391628   0   0   0
-6.0113522 7.0758163 -0.1620630   0   0   0
-6.2689079 7.3815893 2.5949197   0   0   0
-6.2444832 7.3762814 0.1686950   0   0   0
-1.6617059 1.9635812 -0.5938708   0   0   0
-5.8007882 6.8545934 0.4706049   0   0   0
-1.8867581 2.2303069 -0.5678476   0   0   0
-5.1950250 6.1431310 0.7038698   0   0   0
-2.3171935 2.7410577 -0.5684828   0   0   0
-5.3109598 6.2846723 1.0102969   0   0   0
-2.9899204 3.5393458 -0.5688861   0   0   0
-6.2539662 7.4031902 1.5349350   0   0   0
-4.3204706 5.1162080 -0.5858609   0   0   0
-6.2484783 7.4019334 1.8829032   0   0   0
-6.2459043 7.4015047 -0.5075541   0   0   0
-6.2612885 7.4223632 2.2418622   0   0   0
-6.0033784 7.1166270 -0.1625168   0   0   0
-6.2431031 7.4034269 2.5949197   0   0   0
-6.1183166 7.2760381 0.1659375   0   0   0
-1.6125517 1.9183620 -0.5785741   0   0   0
-5.6444831 6.7173037 0.4598237   0   0   0
-1.8827496 2.2413892 -0.5689924   0   0   0
-5.2171112 6.2131052 0.7097964   0   0   0
-2.3080911 2.7487267 -0.5684828   0   0   0
-5.7942119 6.9028258 1.1065736   0   0   0
-2.9756151 3.5461999 -0.5683986   0   0   0
-6.2306252 7.4280024 1.5355607   0   0   0
-4.2949045 5.1220979 -0.5848150   0   0   0
-6.2251597 7.4241178 1.8832848   0   0   0
-6.2161937 7.4160535 -0.5071354   0   0   0
-6.2278796 7.4326297 2.2387129   0   0   0
-6.1980714 7.3996784 -0.1684855   0   0   0
-6.2184626 7.4266555 2.5954374   0   0   0
-6.2005383 7.4262900 0.1688695   0   0   0
-1.6208302 1.9419323 -0.5839729   0   0   0
-5.6042595 6.7145177 0.4583583   0   0   0
-1.8727911 2.2446054 -0.5682292   0   0   0
-2.2908923 2.7476635 -0.5666056   0   0   0
-5.6239228 6.7476467 1.0785437   0   0   0
-2.9644891 3.5580903 -0.5686424   0   0   0
-6.2009009 7.4425524 1.5343092   0   0   0
-4.3059472 5.1699929 -0.5886499   0   0   0
-6.1979506 7.4442937 1.8829032   0   0   0
-5.9935091 7.2012968 -0.4910159   0   0   0
-6.2018969 7.4543238 2.2387129   0   0   0
-6.2067518 7.4601591 -0.1693931   0   0   0
-6.2012125 7.4561476 2.5985432   0   0   0
-5.9473779 7.1712882 0.1626215   0   0   0
-1.6143816 1.9472965 -0.5839729   0   0   0
-5.5565729 6.7048210 0.4563695   0   0   0
-1.8661970 2.2526408 -0.5686108   0   0   0
-2.3019273 2.7795876 -0.5716115   0   0   0
-5.5597418 6.7157990 1.0705003   0   0   0
-2.9590018 3.5755479 -0.5698610   0   0   0
-6.1685880 7.4565420 1.5327449   0   0   0
-4.3437424 5.2525488 -0.5963196   0   0   0
-6.1782350 7.4708576 1.8844296   0   0   0
-6.1771434 7.4748490 2.2387129   0   0   0
-6.1679374 7.4663624 -0.1690440   0   0   0
-6.1689974 7.4703005 2.5959550   0   0   0
-5.1581790 6.2285243 0.7075303   0   0   0
-5.8956362 7.1621602 0.1619234   0   0   0
-1.6220924 1.9712578 -0.5893718   0   0   0
-5.5927810 6.7966616 0.4612891   0   0   0
-1.8683000 2.2712709 -0.5716638   0   0   0
-5.1718381 6.2895816 0.7124110   0   0   0
-2.2992503 2.7971619 -0.5734887   0   0   0
-5.5565144 6.7622047 1.0746439   0   0   0
-2.9559568 3.5986408 -0.5718110   0   0   0
-6.1462838 7.4826083 1.5336835   0   0   0
-4.3051513 5.2430424 -0.5935306   0   0   0
-6.1470746 7.4888993 1.8832848   0   0   0
-5.8392020 7.1163546 -0.4824328   0   0   0
-6.1521770 7.5004526 2.2396127   0   0   0
-6.1481783 7.4955777 -0.1692185   0   0   0
-6.1416587 7.4902949 2.5954374   0   0   0
-5.7832501 7.0733039 0.1594801   0   0   0
