ply
format ascii 1.0
element vertex 1102
property float x
property float y
property float z
property uchar red
property uchar green
property uchar blue
end_header
2.5988767 -4.1126054 0.9456494   0   0   0
2.6378272 -4.1758566 -0.2588536   0   0   0
2.6021686 -4.1209994 1.1252052   0   0   0
2.6178944 -4.1459040 -0.0855866   0   0   0
2.5974649 -4.1151410 1.3039303   0   0   0
2.5943388 -4.1229311 0.0850281   0   0   0
2.6024978 -4.1391019 0.2562368   0   0   0
1.3623169 -2.1675150 -0.4976299   0   0   0
2.6021305 -4.1417254 0.4279347   0   0   0
1.6120505 -2.5658476 -0.4799409   0   0   0
2.5908242 -4.1253277 0.5981347   0   0   0
2.0412638 -3.2515315 -0.4713906   0   0   0
2.5882609 -4.1244421 0.7712219   0   0   0
2.6140609 -4.1671701 -0.4303751   0   0   0
2.5904409 -4.1295166 0.9475575   0   0   0
2.6091104 -4.1608915 -0.2573882   0   0   0
2.5915935 -4.1345594 1.1265549   0   0   0
2.6087153 -4.1634896 -0.0857611   0   0   0
2.5830845 -4.1241828 1.3039303   0   0   0
2.5809904 -4.1336581 0.0850630   0   0   0
2.5760677 -4.1273774 0.2549808   0   0   0
1.3384944 -2.1453701 -0.4915240   0   0   0
2.6073596 -4.1807617 0.4310723   0   0   0
1.6030842 -2.5714591 -0.4799409   0   0   0
2.5774582 -4.1360310 0.5983785   0   0   0
2.0068105 -3.2215687 -0.4660284   0   0   0
2.5745695 -4.1330024 0.7712219   0   0   0
2.6002277 -4.1758158 -0.4303751   0   0   0
2.5811977 -4.1468675 0.9494656   0   0   0
2.5956255 -4.1716694 -0.2574929   0   0   0
2.5719993 -4.1353066 1.1243054   0   0   0
2.5959504 -4.1738156 -0.0857960   0   0   0
2.5744941 -4.1409291 1.3065185   0   0   0
2.5756961 -4.1557919 0.0853423   0   0   0
2.5690058 -4.1482304 0.2557135   0   0   0
1.3227304 -2.1366751 -0.4884710   0   0   0
2.5801691 -4.1695068 0.4289806   0   0   0
1.6007849 -2.5868396 -0.4818182   0   0   0
2.5710385 -4.1563729 0.6000846   0   0   0
2.0002923 -3.2349594 -0.4670033   0   0   0
2.5684357 -4.1554066 0.7737249   0   0   0
2.5866828 -4.1865618 -0.4305494   0   0   0
2.5664000 -4.1537340 0.9490839   0   0   0
2.5828269 -4.1819532 -0.2575976   0   0   0
2.5603195 -4.1471293 1.1252052   0   0   0
2.5719136 -4.1675361 -0.0854819   0   0   0
2.5600239 -4.1498905 1.3065185   0   0   0
2.5565793 -4.1605400 0.0852376   0   0   0
2.5611020 -4.1695314 0.2564462   0   0   0
1.3200265 -2.1498740 -0.4903791   0   0   0
2.5565321 -4.1653511 0.4275861   0   0   0
1.5846423 -2.5828646 -0.4799409   0   0   0
2.5695894 -4.1899052 0.6034970   0   0   0
2.0065313 -3.2730791 -0.4713906   0   0   0
2.5459611 -4.1530037 0.7715348   0   0   0
2.5723619 -4.1977131 -0.4307237   0   0   0
2.5473554 -4.1585353 0.9479391   0   0   0
2.5740512 -4.2037628 -0.2583303   0   0   0
2.5464115 -4.1602539 1.1261050   0   0   0
2.5628852 -4.1871681 -0.0856913   0   0   0
2.5387471 -4.1493583 1.3034127   0   0   0
2.5396446 -4.1638734 0.0851328   0   0   0
2.5465320 -4.1784459 0.2564462   0   0   0
1.3165997 -2.1611752 -0.4919056   0   0   0
2.5564846 -4.1980734 0.4300264   0   0   0
1.5555200 -2.5543620 -0.4736836   0   0   0
2.5432949 -4.1780556 0.6005721   0   0   0
1.9760606 -3.2474944 -0.4667596   0   0   0
2.5417143 -4.1787425 0.7746635   0   0   0
2.5556233 -4.2032619 -0.4303751   0   0   0
2.5335512 -4.1669598 0.9479391   0   0   0
2.5549103 -4.2037418 -0.2578069   0   0   0
2.5386725 -4.1786680 1.1288044   0   0   0
2.5503296 -4.1995071 -0.0857611   0   0   0
2.5252502 -4.1598463 1.3039303   0   0   0
2.5254012 -4.1748647 0.0851677   0   0   0
2.5288306 -4.1821822 0.2561322   0   0   0
1.3080322 -2.1640776 -0.4915240   0   0   0
2.5325420 -4.1916239 0.4284576   0   0   0
1.5522748 -2.5701916 -0.4755608   0   0   0
2.5382241 -4.2043432 0.6030095   0   0   0
1.9508110 -3.2326206 -0.4635910   0   0   0
2.5291536 -4.1909718 0.7752892   0   0   0
2.5481396 -4.2240992 -0.4315952   0   0   0
2.5223167 -4.1829427 0.9494656   0   0   0
2.5394856 -4.2130778 -0.2578069   0   0   0
2.5233399 -4.1879446 1.1288044   0   0   0
2.5366870 -4.2100967 -0.0857960   0   0   0
2.5117109 -4.1702906 1.3044480   0   0   0
2.5125723 -4.1849307 0.0852026   0   0   0
2.5265463 -4.2115364 0.2573882   0   0   0
1.2964314 -2.1618955 -0.4899975   0   0   0
2.5250657 -4.2124008 0.4296778   0   0   0
1.5457744 -2.5787136 -0.4761865   0   0   0
2.5140648 -4.1957091 0.6005721   0   0   0
1.9400805 -3.2390719 -0.4635910   0   0   0
2.5134942 -4.1980799 0.7749763   0   0   0
2.5333792 -4.2329682 -0.4315952   0   0   0
2.5134728 -4.1997070 0.9513736   0   0   0
2.5213991 -4.2146200 -0.2573882   0   0   0
2.5034373 -4.1862543 1.1261050   0   0   0
2.5230016 -4.2206421 -0.0858309   0   0   0
2.5070479 -4.1956162 1.3096244   0   0   0
2.5036439 -4.2065760 0.0854470   0   0   0
2.4998603 -4.2018873 0.2562368   0   0   0
1.2925130 -2.1733822 -0.4915240   0   0   0
2.5035009 -4.2113515 0.4286319   0   0   0
1.5439343 -2.5982154 -0.4786895   0   0   0
2.5121288 -4.2292254 0.6039845   0   0   0
1.9276291 -3.2464974 -0.4635910   0   0   0
2.5021247 -4.2140582 0.7762278   0   0   0
2.5158138 -4.2387984 -0.4312466   0   0   0
2.5033390 -4.2194578 0.9536634   0   0   0
2.5102915 -4.2328598 -0.2579116   0   0   0
2.4913198 -4.2025413 1.1279046   0   0   0
2.5098353 -4.2354596 -0.0859356   0   0   0
2.4916533 -4.2047768 1.3096244   0   0   0
2.4879282 -4.2135678 0.0854121   0   0   0
2.4996661 -4.2368244 0.2578069   0   0   0
1.2769378 -2.1643535 -0.4884710   0   0   0
2.4938459 -4.2286456 0.4295035   0   0   0
1.5208110 -2.5797652 -0.4743093   0   0   0
2.4923117 -4.2294174 0.6027658   0   0   0
1.9324051 -3.2805729 -0.4674908   0   0   0
2.4786443 -4.2095829 0.7737249   0   0   0
2.4989804 -4.2441206 -0.4308980   0   0   0
2.4945701 -4.2383220 0.9559531   0   0   0
2.4975263 -4.2450394 -0.2581209   0   0   0
2.4786108 -4.2145715 1.1288044   0   0   0
2.4919952 -4.2390231 -0.0858309   0   0   0
2.4713316 -4.2055531 1.3070362   0   0   0
2.4721943 -4.2205012 0.0853772   0   0   0
2.4845934 -4.2433667 0.2577023   0   0   0
1.2693750 -2.1687976 -0.4884710   0   0   0
2.4700149 -4.2218477 0.4279347   0   0   0
1.5137912 -2.5884685 -0.4749350   0   0   0
2.4865496 -4.2535152 0.6049594   0   0   0
1.9049175 -3.2598756 -0.4635910   0   0   0
2.4768874 -4.2403835 0.7777922   0   0   0
2.4851554 -4.2545382 -0.4310723   0   0   0
2.4629317 -4.2181819 0.9494656   0   0   0
2.4867202 -4.2606314 -0.2585396   0   0   0
2.4658481 -4.2265643 1.1297042   0   0   0
2.4812127 -4.2546056 -0.0859706   0   0   0
2.4583451 -4.2153940 1.3075538   0   0   0
2.4584516 -4.2308340 0.0854121   0   0   0
2.4727756 -4.2571949 0.2580163   0   0   0
1.2696830 -2.1867980 -0.4915240   0   0   0
2.4742649 -4.2631847 0.4312466   0   0   0
1.4987989 -2.5834849 -0.4730578   0   0   0
2.4587409 -4.2398449 0.6017908   0   0   0
1.8935268 -3.2665051 -0.4635910   0   0   0
2.4561283 -4.2387486 0.7759149   0   0   0
2.4742847 -4.2700827 -0.4317696   0   0   0
2.4491765 -4.2284523 0.9498472   0   0   0
2.4648275 -4.2571865 -0.2578069   0   0   0
2.4540080 -4.2402059 1.1310539   0   0   0
2.4643435 -4.2597789 -0.0859007   0   0   0
2.4465178 -4.2289661 1.3091067   0   0   0
2.4486614 -4.2480523 0.0855866   0   0   0
2.4521715 -4.2575759 0.2574929   0   0   0
1.2473442 -2.1656978 -0.4857997   0   0   0
2.4543981 -4.2631621 0.4303751   0   0   0
1.4976541 -2.6023978 -0.4755608   0   0   0
2.4538245 -4.2656087 0.6042282   0   0   0
1.8702385 -3.2524444 -0.4606661   0   0   0
2.4479668 -4.2571448 0.7777922   0   0   0
2.4673073 -4.2925125 -0.4331640   0   0   0
2.4441821 -4.2539986 0.9536634   0   0   0
2.4539310 -4.2726922 -0.2582256   0   0   0
2.4343408 -4.2402959 1.1288044   0   0   0
2.4554309 -4.2787615 -0.0861102   0   0   0
2.4319627 -4.2395803 1.3096244   0   0   0
2.4417587 -4.2704615 0.0858658   0   0   0
2.4370483 -4.2639502 0.2573882   0   0   0
1.2388030 -2.1683340 -0.4854181   0   0   0
2.4434542 -4.2786241 0.4310723   0   0   0
1.4846437 -2.6007476 -0.4743093   0   0   0
2.4310492 -4.2603550 0.6022783   0   0   0
1.8411704 -3.2279153 -0.4562788   0   0   0
2.4245198 -4.2523601 0.7752892   0   0   0
2.4444139 -4.2872522 -0.4317696   0   0   0
2.4380671 -4.2778556 0.9570979   0   0   0
2.4380129 -4.2794966 -0.2581209   0   0   0
2.4224176 -4.2538478 1.1301541   0   0   0
2.4325663 -4.2734036 -0.0858309   0   0   0
2.4171490 -4.2480436 1.3096244   0   0   0
2.4238776 -4.2737406 0.0857611   0   0   0
2.4280596 -4.2828559 0.2580163   0   0   0
1.2273548 -2.1658128 -0.4838916   0   0   0
2.4157380 -4.2645909 0.4288062   0   0   0
1.4755563 -2.6059141 -0.4743093   0   0   0
2.4288745 -4.2912733 0.6054469   0   0   0
1.8298916 -3.2343225 -0.4562788   0   0   0
2.4094324 -4.2586574 0.7749763   0   0   0
2.4274721 -4.2922902 -0.4314209   0   0   0
2.4182889 -4.2777946 0.9551898   0   0   0
2.4348508 -4.3088468 -0.2593770   0   0   0
2.4104294 -4.2673680 1.1315038   0   0   0
2.4176345 -4.2818688 -0.0858309   0   0   0
2.4023058 -4.2564552 1.3096244   0   0   0
2.4040425 -4.2734612 0.0855866   0   0   0
2.4170106 -4.2982689 0.2584349   0   0   0
1.2236351 -2.1769296 -0.4854181   0   0   0
2.4066928 -4.2834193 0.4298521   0   0   0
1.4538759 -2.5886586 -0.4702420   0   0   0
2.4070779 -4.2876088 0.6037407   0   0   0
1.8477347 -3.2926245 -0.4635910   0   0   0
2.4061528 -4.2877139 0.7787308   0   0   0
2.4124744 -4.3007375 -0.4314209   0   0   0
2.3975808 -4.2759354 0.9529001   0   0   0
2.4139363 -4.3068662 -0.2587490   0   0   0
2.4012337 -4.2859566 1.1342032   0   0   0
2.4143984 -4.3112185 -0.0862498   0   0   0
2.3921516 -4.2732434 1.3122126   0   0   0
2.3910594 -4.2853194 0.0856564   0   0   0
2.3990735 -4.3014467 0.2581209   0   0   0
1.2112487 -2.1726138 -0.4835100   0   0   0
2.3965756 -4.3004961 0.4307237   0   0   0
1.4419470 -2.5885407 -0.4693034   0   0   0
2.3911310 -4.2942506 0.6034970   0   0   0
1.8265758 -3.2817090 -0.4611536   0   0   0
2.3911713 -4.2960869 0.7787308   0   0   0
2.4090713 -4.3300252 -0.4335127   0   0   0
2.3912282 -4.2997204 0.9563347   0   0   0
2.3930652 -4.3047923 -0.2581209   0   0   0
2.3909911 -4.3028294 1.1364527   0   0   0
2.3983637 -4.3178720 -0.0862149   0   0   0
2.3789059 -4.2828413 1.3127302   0   0   0
2.3935148 -4.3251333 0.0862847   0   0   0
2.3772767 -4.2975610 0.2573882   0   0   0
1.2065075 -2.1819829 -0.4846549   0   0   0
2.3979341 -4.3384794 0.4336870   0   0   0
1.4367236 -2.6004745 -0.4705549   0   0   0
2.3799653 -4.3095219 0.6044719   0   0   0
1.7844099 -3.2324529 -0.4533540   0   0   0
2.3752059 -4.3026781 0.7784179   0   0   0
2.3900917 -4.3314303 -0.4328154   0   0   0
2.3743084 -4.3046030 0.9555714   0   0   0
2.3934533 -4.3411039 -0.2597957   0   0   0
2.3712538 -4.3026157 1.1342032   0   0   0
2.3909960 -4.3402296 -0.0864941   0   0   0
2.3697156 -4.3033774 1.3163537   0   0   0
2.3803269 -4.3369679 0.0863545   0   0   0
2.3653508 -4.3132502 0.2578069   0   0   0
1.1969956 -2.1827383 -0.4838916   0   0   0
2.3837330 -4.3485705 0.4338613   0   0   0
1.4238406 -2.5985443 -0.4693034   0   0   0
2.3668150 -4.3212853 0.6049594   0   0   0
1.7845551 -3.2595565 -0.4562788   0   0   0
2.3611209 -4.3126756 0.7787308   0   0   0
2.3730447 -4.3362513 -0.4324668   0   0   0
2.3649213 -4.3231990 0.9578612   0   0   0
2.3830765 -4.3581942 -0.2603190   0   0   0
2.3562205 -4.3108668 1.1342032   0   0   0
2.3662436 -4.3310006 -0.0861451   0   0   0
2.3554320 -4.3112120 1.3163537   0   0   0
2.3613495 -4.3382249 0.0862149   0   0   0
2.3531430 -4.3267442 0.2581209   0   0   0
1.1837412 -2.1765551 -0.4816019   0   0   0
2.3780552 -4.3743692 0.4356044   0   0   0
1.4091023 -2.5930846 -0.4674262   0   0   0
2.3526640 -4.3312651 0.6052032   0   0   0
1.7542221 -3.2308753 -0.4514041   0   0   0
2.3462406 -4.3230367 0.7790436   0   0   0
2.3521916 -4.3340017 -0.4314209   0   0   0
2.3507523 -4.3331534 0.9582428   0   0   0
2.3659449 -4.3629746 -0.2601097   0   0   0
2.3467304 -4.3293446 1.1369026   0   0   0
2.3549217 -4.3462668 -0.0862847   0   0   0
2.3331747 -4.3079252 1.3127302   0   0   0
2.3357433 -4.3270845 0.0858309   0   0   0
2.3435242 -4.3433123 0.2586443   0   0   0
1.1835921 -2.1944975 -0.4846549   0   0   0
2.3627713 -4.3826436 0.4356044   0   0   0
1.4094132 -2.6153769 -0.4705549   0   0   0
2.3460034 -4.3551800 0.6073968   0   0   0
1.7692846 -3.2859182 -0.4582287   0   0   0
2.3384475 -4.3429683 0.7812337   0   0   0
2.3559340 -4.3772743 -0.4349072   0   0   0
2.3365426 -4.3430616 0.9586244   0   0   0
2.3507008 -4.3712068 -0.2601097   0   0   0
2.3380626 -4.3495251 1.1400519   0   0   0
2.3435220 -4.3615066 -0.0864243   0   0   0
2.3207050 -4.3190421 1.3137655   0   0   0
2.3291183 -4.3510784 0.0861451   0   0   0
2.3322992 -4.3606785 0.2591677   0   0   0
1.1833321 -2.2124652 -0.4877078   0   0   0
2.3418225 -4.3803222 0.4345585   0   0   0
1.3891029 -2.5993743 -0.4668004   0   0   0
2.3242396 -4.3510860 0.6056906   0   0   0
1.7241438 -3.2290344 -0.4494541   0   0   0
2.3234441 -4.3532526 0.7815466   0   0   0
2.3256300 -4.3573482 -0.4321182   0   0   0
2.3213682 -4.3511912 0.9586244   0   0   0
2.3288495 -4.3670493 -0.2593770   0   0   0
2.3219490 -4.3559403 1.1396020   0   0   0
2.3329849 -4.3784844 -0.0865988   0   0   0
2.3121245 -4.3411596 1.3179066   0   0   0
2.3176662 -4.3662471 0.0862847   0   0   0
2.3094008 -4.3525100 0.2582256   0   0   0
1.1719224 -2.2096447 -0.4861813   0   0   0
2.3302509 -4.3955112 0.4352558   0   0   0
1.3744712 -2.5937346 -0.4649232   0   0   0
2.3146124 -4.3696978 0.6071531   0   0   0
1.6961420 -3.2034547 -0.4450668   0   0   0
2.3165506 -4.3770498 0.7843624   0   0   0
2.2973580 -4.3407860 -0.4296778   0   0   0
2.3052475 -4.3575324 0.9582428   0   0   0
2.3303972 -4.4069327 -0.2612611   0   0   0
2.3003551 -4.3519589 1.1364527   0   0   0
2.3102136 -4.3724568 -0.0863196   0   0   0
2.2950085 -4.3436787 1.3163537   0   0   0
2.3042739 -4.3778498 0.0863545   0   0   0
2.2979134 -4.3676150 0.2586443   0   0   0
1.1532364 -2.1928706 -0.4816019   0   0   0
2.3167477 -4.4071457 0.4356044   0   0   0
1.3654090 -2.5985166 -0.4649232   0   0   0
2.2974991 -4.3742358 0.6066656   0   0   0
1.7163231 -3.2691138 -0.4533540   0   0   0
2.2939142 -4.3711162 0.7818595   0   0   0
2.2951536 -4.3734778 -0.4321182   0   0   0
2.3000548 -4.3846770 0.9624406   0   0   0
2.3066526 -4.3991208 -0.2603190   0   0   0
2.2896731 -4.3685922 1.1387022   0   0   0
2.2977208 -4.3858083 -0.0864243   0   0   0
2.2861079 -4.3636420 1.3199771   0   0   0
2.2917539 -4.3911849 0.0864592   0   0   0
2.2865072 -4.3848627 0.2591677   0   0   0
1.1600988 -2.2247355 -0.4877078   0   0   0
2.2921406 -4.3975379 0.4338613   0   0   0
1.3599811 -2.6102744 -0.4661747   0   0   0
2.2913854 -4.3998353 0.6091030   0   0   0
1.6829026 -3.2328258 -0.4475042   0   0   0
2.2876156 -4.3944687 0.7846753   0   0   0
2.2964274 -4.4132765 -0.4352558   0   0   0
2.2792999 -4.3822285 0.9601509   0   0   0
2.3060236 -4.4354989 -0.2619938   0   0   0
2.2771058 -4.3817456 1.1400519   0   0   0
2.2842410 -4.3973512 -0.0864941   0   0   0
2.2638673 -4.3599901 1.3163537   0   0   0
2.2708977 -4.3885018 0.0862498   0   0   0
2.2774595 -4.4030649 0.2597957   0   0   0
1.1378993 -2.2008682 -0.4816019   0   0   0
2.2859238 -4.4232121 0.4356044   0   0   0
1.3472348 -2.6079856 -0.4649232   0   0   0
2.2732808 -4.4025154 0.6083718   0   0   0
1.6679658 -3.2316246 -0.4465293   0   0   0
2.2651538 -4.3905352 0.7824852   0   0   0
2.2718732 -4.4035593 -0.4335127   0   0   0
2.2621895 -4.3866682 0.9593876   0   0   0
2.2813756 -4.4257686 -0.2609471   0   0   0
2.2707226 -4.4069906 1.1445510   0   0   0
2.2725399 -4.4124090 -0.0866337   0   0   0
2.2521713 -4.3747363 1.3184242   0   0   0
2.2619549 -4.4088564 0.0864941   0   0   0
2.2638988 -4.4145423 0.2600050   0   0   0
1.1275232 -2.1995855 -0.4804570   0   0   0
2.2622930 -4.4152059 0.4340356   0   0   0
1.3354216 -2.6073978 -0.4639846   0   0   0
2.2578993 -4.4104238 0.6083718   0   0   0
1.6458236 -3.2162213 -0.4436044   0   0   0
2.2595806 -4.4156076 0.7856139   0   0   0
2.2655612 -4.4292009 -0.4352558   0   0   0
2.2522258 -4.4050262 0.9616773   0   0   0
2.2668218 -4.4354836 -0.2610518   0   0   0
2.2517794 -4.4079484 1.1427514   0   0   0
2.2643991 -4.4345623 -0.0869130   0   0   0
2.2412781 -4.3911746 1.3210124   0   0   0
2.2447381 -4.4131605 0.0864243   0   0   0
2.2439495 -4.4135161 0.2594817   0   0   0
1.1207278 -2.2052581 -0.4808387   0   0   0
2.2658167 -4.4603790 0.4376961   0   0   0
1.3146855 -2.5891462 -0.4599173   0   0   0
2.2424903 -4.4182785 0.6083718   0   0   0
1.6435681 -3.2396498 -0.4460418   0   0   0
2.2387911 -4.4128983 0.7837367   0   0   0
2.2590978 -4.4548519 -0.4369989   0   0   0
2.2368357 -4.4128611 0.9616773   0   0   0
2.2486172 -4.4380244 -0.2607377   0   0   0
2.2319767 -4.4070892 1.1405018   0   0   0
2.2480026 -4.4406554 -0.0868781   0   0   0
2.2311698 -4.4093138 1.3241182   0   0   0
2.2401241 -4.4423956 0.0868432   0   0   0
2.2285298 -4.4213220 0.2594817   0   0   0
1.0971229 -2.1775974 -0.4739695   0   0   0
2.2403757 -4.4486868 0.4357787   0   0   0
1.3145215 -2.6113639 -0.4630460   0   0   0
2.2359765 -4.4438120 0.6108092   0   0   0
1.6340335 -3.2489140 -0.4465293   0   0   0
2.2260363 -4.4259805 0.7846753   0   0   0
2.2435337 -4.4627104 -0.4369989   0   0   0
2.2284704 -4.4346760 0.9647303   0   0   0
2.2429731 -4.4654789 -0.2618891   0   0   0
2.2253234 -4.4322690 1.1450009   0   0   0
2.2244157 -4.4323901 -0.0865639   0   0   0
2.2182687 -4.4201416 1.3251535   0   0   0
2.2246036 -4.4501880 0.0868432   0   0   0
2.2220102 -4.4469405 0.2605284   0   0   0
1.0895149 -2.1814138 -0.4739695   0   0   0
2.2257231 -4.4582626 0.4359530   0   0   0
1.3053982 -2.6159365 -0.4630460   0   0   0
2.2204511 -4.4515900 0.6108092   0   0   0
1.6209112 -3.2510450 -0.4460418   0   0   0
2.2114546 -4.4354917 0.7849881   0   0   0
2.2279423 -4.4705147 -0.4369989   0   0   0
2.2138523 -4.4441851 0.9651119   0   0   0
2.2255915 -4.4697054 -0.2616798   0   0   0
2.2124433 -4.4452437 1.1463506   0   0   0
2.2151651 -4.4526603 -0.0868083   0   0   0
2.1960320 -4.4161338 1.3215300   0   0   0
2.2055045 -4.4507591 0.0867036   0   0   0
2.2127859 -4.4693739 0.2613658   0   0   0
1.0906046 -2.2027978 -0.4777857   0   0   0
2.2066125 -4.4588619 0.4352558   0   0   0
1.2839970 -2.5956890 -0.4586658   0   0   0
2.2084180 -4.4664315 0.6117841   0   0   0
1.6007577 -3.2388871 -0.4436044   0   0   0
2.2038354 -4.4591221 0.7878040   0   0   0
2.2034991 -4.4604013 -0.4352558   0   0   0
2.1922410 -4.4395634 0.9624406   0   0   0
2.2152797 -4.4881928 -0.2623078   0   0   0
2.1977752 -4.4546871 1.1468005   0   0   0
2.2075689 -4.4765068 -0.0871224   0   0   0
2.1882109 -4.4372529 1.3256711   0   0   0
2.1881917 -4.4548409 0.0866337   0   0   0
2.1927717 -4.4681058 0.2608424   0   0   0
1.0829088 -2.2065913 -0.4777857   0   0   0
2.1980545 -4.4808474 0.4366503   0   0   0
1.2801465 -2.6107970 -0.4605431   0   0   0
2.1866983 -4.4616355 0.6100779   0   0   0
1.5842022 -3.2337591 -0.4421420   0   0   0
2.1857397 -4.4636215 0.7871782   0   0   0
2.1966781 -4.4859596 -0.4369989   0   0   0
2.1793200 -4.4524788 0.9635854   0   0   0
2.1908222 -4.4779577 -0.2612611   0   0   0
2.1830682 -4.4640822 1.1472504   0   0   0
2.1910513 -4.4823889 -0.0870875   0   0   0
2.1710848 -4.4435075 1.3251535   0   0   0
2.1796309 -4.4768354 0.0869130   0   0   0
2.1753210 -4.4699651 0.2605284   0   0   0
1.0631768 -2.1856415 -0.4724431   0   0   0
2.1336118 -4.3881512 0.4268888   0   0   0
1.2658445 -2.6045897 -0.4586658   0   0   0
2.1147298 -4.3531803 0.5942349   0   0   0
1.5685692 -3.2303407 -0.4409233   0   0   0
2.1709257 -4.4708451 0.7871782   0   0   0
2.1740461 -4.4792607 -0.4356044   0   0   0
2.1406274 -4.4123672 0.9532817   0   0   0
2.1856354 -4.5071430 -0.2625172   0   0   0
2.1632224 -4.4629074 1.1450009   0   0   0
2.1762634 -4.4918094 -0.0871224   0   0   0
2.1664455 -4.4715452 1.3313652   0   0   0
2.1657287 -4.4880184 0.0869828   0   0   0
2.1580557 -4.4761089 0.2604237   0   0   0
1.0606567 -2.1999500 -0.4747328   0   0   0
2.0447599 -4.2430104 0.4120723   0   0   0
1.2653177 -2.6267891 -0.4617945   0   0   0
2.0624913 -4.2836270 0.5837541   0   0   0
1.5547011 -3.2304302 -0.4401921   0   0   0
2.0765987 -4.3167814 0.7587072   0   0   0
2.1583973 -4.4868222 -0.4356044   0   0   0
2.0843755 -4.3348842 0.9349641   0   0   0
2.1638330 -4.5021439 -0.2617845   0   0   0
2.1510062 -4.4774574 1.1468005   0   0   0
2.1562427 -4.4903654 -0.0869479   0   0   0
2.1441903 -4.4672642 1.3277417   0   0   0
2.1535005 -4.5027668 0.0871224   0   0   0
2.1543990 -4.5066660 0.2617845   0   0   0
1.0614354 -2.2213532 -0.4785490   0   0   0
2.0204910 -4.2303457 0.4101549   0   0   0
1.2476304 -2.6133634 -0.4586658   0   0   0
2.0441065 -4.2836341 0.5827792   0   0   0
1.5425607 -3.2340458 -0.4399483   0   0   0
2.0589674 -4.3186545 0.7577685   0   0   0
2.1238587 -4.4547632 -0.4317696   0   0   0
2.0650084 -4.3332721 0.9330560   0   0   0
2.1609878 -4.5367169 -0.2633545   0   0   0
2.1395525 -4.4937360 1.1490500   0   0   0
2.1465705 -4.5105042 -0.0871922   0   0   0
2.1301947 -4.4760945 1.3282593   0   0   0
2.1326310 -4.4994146 0.0869130   0   0   0
2.1360893 -4.5087439 0.2614704   0   0   0
1.0435919 -2.2037524 -0.4739695   0   0   0
2.0057120 -4.2373728 0.4101549   0   0   0
1.2292074 -2.5980608 -0.4552243   0   0   0
2.0325360 -4.2979214 0.5837541   0   0   0
1.5321107 -3.2412053 -0.4401921   0   0   0
2.0489432 -4.3365316 0.7596458   0   0   0
2.0963797 -4.4369296 -0.4293292   0   0   0
2.0381323 -4.3156006 0.9277133   0   0   0
2.1357600 -4.5243650 -0.2622031   0   0   0
2.1263481 -4.5064643 1.1503997   0   0   0
2.1299598 -4.5161611 -0.0871573   0   0   0
2.1162054 -4.4869975 1.3292946   0   0   0
2.1237134 -4.5213112 0.0871922   0   0   0
2.1254890 -4.5291993 0.2622031   0   0   0
1.0408973 -2.2180455 -0.4762593   0   0   0
2.0112154 -4.2876395 0.4143384   0   0   0
1.2209696 -2.6041243 -0.4555372   0   0   0
2.1042871 -4.4901317 0.6088592   0   0   0
1.5182612 -3.2411407 -0.4394609   0   0   0
2.0337135 -4.3415134 0.7593329   0   0   0
2.0166701 -4.3070865 -0.4160815   0   0   0
2.0238878 -4.3244669 0.9280949   0   0   0
2.1241854 -4.5408381 -0.2627265   0   0   0
2.1122555 -4.5173898 1.1512995   0   0   0
2.1234961 -4.5434961 -0.0875413   0   0   0
2.1046515 -4.5052253 1.3324004   0   0   0
2.1079181 -4.5286968 0.0871922   0   0   0
2.1054030 -4.5253575 0.2615751   0   0   0
1.0248701 -2.2038636 -0.4724431   0   0   0
2.0583827 -4.4283330 0.4272375   0   0   0
1.2068781 -2.5976216 -0.4536599   0   0   0
2.0969619 -4.5154538 0.6112966   0   0   0
1.5019235 -3.2356173 -0.4379984   0   0   0
2.1106350 -4.5490528 -0.4387420   0   0   0
2.0120842 -4.3386294 0.9296214   0   0   0
2.1066421 -4.5446012 -0.2625172   0   0   0
2.0940162 -4.5194309 1.1499498   0   0   0
2.1067830 -4.5490663 -0.0875064   0   0   0
2.0872894 -4.5090382 1.3313652   0   0   0
2.0937722 -4.5396589 0.0872620   0   0   0
2.0987916 -4.5526309 0.2627265   0   0   0
1.0171710 -2.2074276 -0.4724431   0   0   0
2.0862545 -4.5295937 0.4363016   0   0   0
1.2002816 -2.6072016 -0.4545986   0   0   0
1.9990351 -4.3442166 0.5871665   0   0   0
1.4914495 -3.2426437 -0.4382422   0   0   0
2.0033547 -4.3556055 0.7593329   0   0   0
2.0864206 -4.5382901 -0.4369989   0   0   0
1.9993866 -4.3509782 0.9307663   0   0   0
2.1024366 -4.5773365 -0.2639826   0   0   0
2.0831062 -4.5373389 1.1526492   0   0   0
2.0933931 -4.5618450 -0.0876111   0   0   0
2.0803968 -4.5356122 1.3370592   0   0   0
2.0787443 -4.5487587 0.0872969   0   0   0
2.0812275 -4.5562960 0.2625172   0   0   0
1.0143518 -2.2216803 -0.4747328   0   0   0
1.9926756 -4.3664675 0.4199164   0   0   0
1.1895338 -2.6077810 -0.4539728   0   0   0
1.9706825 -4.3222687 0.5832667   0   0   0
1.4768286 -3.2406047 -0.4372672   0   0   0
1.9881386 -4.3625720 0.7593329   0   0   0
2.0656109 -4.5346666 -0.4359530   0   0   0
1.9760514 -4.3400632 0.9269501   0   0   0
2.0798275 -4.5701046 -0.2631452   0   0   0
2.0535381 -4.5144274 1.1450009   0   0   0
2.0733181 -4.5600227 -0.0874366   0   0   0
2.0605555 -4.5340528 1.3344710   0   0   0
2.0620287 -4.5541655 0.0872620   0   0   0
2.0751923 -4.5853681 0.2637732   0   0   0
1.0049722 -2.2216300 -0.4739695   0   0   0
1.9651090 -4.3461650 0.4173017   0   0   0
1.1763561 -2.6029170 -0.4524085   0   0   0
1.9465936 -4.3092215 0.5805856   0   0   0
1.4720430 -3.2602138 -0.4392171   0   0   0
1.9712725 -4.3658846 0.7587072   0   0   0
2.0382952 -4.5164251 -0.4335127   0   0   0
1.9592752 -4.3433552 0.9261869   0   0   0
2.0769973 -4.6064685 -0.2648199   0   0   0
1.9865228 -4.4078626 1.1162071   0   0   0
2.0697077 -4.5945808 -0.0879601   0   0   0
2.0359873 -4.5197242 1.3282593   0   0   0
2.0469375 -4.5631601 0.0872969   0   0   0
2.0526366 -4.5780043 0.2629358   0   0   0
1.0020286 -2.2358739 -0.4762593   0   0   0
1.9295634 -4.3075406 0.4129439   0   0   0
1.1672630 -2.6070074 -0.4524085   0   0   0
1.9258635 -4.3033067 0.5788794   0   0   0
1.4557903 -3.2544599 -0.4377547   0   0   0
1.9576339 -4.3763454 0.7593329   0   0   0
2.0843235 -4.6617461 -0.4467603   0   0   0
1.9392959 -4.3394135 0.9238972   0   0   0
2.0535738 -4.5972782 -0.2638779   0   0   0
1.9695354 -4.4112111 1.1153073   0   0   0
2.0528421 -4.5999514 -0.0879252   0   0   0
1.9942244 -4.4706990 1.3116949   0   0   0
2.0318087 -4.5721048 0.0873318   0   0   0
2.0350332 -4.5836714 0.2628312   0   0   0
0.9862513 -2.2214144 -0.4724431   0   0   0
1.9161318 -4.3178921 0.4132925   0   0   0
1.1549520 -2.6038432 -0.4511570   0   0   0
1.9092213 -4.3063735 0.5783919   0   0   0
1.4428127 -3.2558920 -0.4372672   0   0   0
1.9383441 -4.3741222 0.7577685   0   0   0
2.0470593 -4.6216294 -0.4422282   0   0   0
1.9289053 -4.3569276 0.9261869   0   0   0
2.0431713 -4.6172035 -0.2646106   0   0   0
1.9549137 -4.4198414 1.1157572   0   0   0
2.0367728 -4.6070891 -0.0879252   0   0   0
1.9520485 -4.4154465 1.2935776   0   0   0
2.0214766 -4.5919807 0.0875762   0   0   0
2.0109801 -4.5724645 0.2617845   0   0   0
0.9784911 -2.2248435 -0.4724431   0   0   0
1.8946336 -4.3099628 0.4118980   0   0   0
1.1506237 -2.6187098 -0.4530342   0   0   0
1.8949759 -4.3148292 0.5786356   0   0   0
1.4234597 -3.2427318 -0.4348298   0   0   0
1.9183308 -4.3721526 0.7562042   0   0   0
2.0309143 -4.6287468 -0.4422282   0   0   0
1.9136851 -4.3636342 0.9261869   0   0   0
2.0238345 -4.6169904 -0.2641919   0   0   0
1.9386916 -4.4248535 1.1153073   0   0   0
2.0158656 -4.6031802 -0.0877158   0   0   0
1.9374012 -4.4261109 1.2946129   0   0   0
2.0094317 -4.6081740 0.0877507   0   0   0
1.9008438 -4.3612297 0.2493285   0   0   0
0.9707190 -2.2282455 -0.4724431   0   0   0
1.8748049 -4.3055897 0.4108522   0   0   0
1.1359575 -2.6100315 -0.4508441   0   0   0
1.8791109 -4.3195973 0.5783919   0   0   0
1.4089656 -3.2403990 -0.4338549   0   0   0
1.9014586 -4.3730554 0.7552656   0   0   0
1.9933027 -4.5864713 -0.4375218   0   0   0
1.8984415 -4.3702876 0.9261869   0   0   0
1.9528201 -4.4976172 -0.2569695   0   0   0
1.9240100 -4.4333815 1.1157572   0   0   0
2.0101303 -4.6340378 -0.0881696   0   0   0
1.8827366 -4.3403519 1.2676957   0   0   0
1.9901624 -4.6078171 0.0876111   0   0   0
1.8785160 -4.3534967 0.2484911   0   0   0
0.9676020 -2.2424360 -0.4747328   0   0   0
1.8581861 -4.3084488 0.4105035   0   0   0
1.1229299 -2.6049108 -0.4492798   0   0   0
1.8632357 -4.3243073 0.5781482   0   0   0
1.3866532 -3.2197727 -0.4304425   0   0   0
1.8893229 -4.3890672 0.7568299   0   0   0
1.8839507 -4.3786912 0.9265685   0   0   0
1.8518916 -4.3062492 -0.2456650   0   0   0
1.9069838 -4.4364898 1.1148574   0   0   0
1.9931529 -4.6391889 -0.0881347   0   0   0
1.8698649 -4.3543237 1.2697662   0   0   0
1.9748525 -4.6165745 0.0876460   0   0   0
1.8585726 -4.3468471 0.2477584   0   0   0
0.9597685 -2.2457999 -0.4747328   0   0   0
1.8431355 -4.3149088 0.4105035   0   0   0
1.1169328 -2.6160815 -0.4505313   0   0   0
1.8489089 -4.3326106 0.5783919   0   0   0
1.3754056 -3.2245934 -0.4304425   0   0   0
1.8732160 -4.3938183 0.7565171   0   0   0
1.8678851 -4.3834346 0.9261869   0   0   0
1.8258918 -4.2869618 -0.2441996   0   0   0
1.8800362 -4.4162240 1.1081089   0   0   0
1.9753810 -4.6424380 -0.0880648   0   0   0
1.8667610 -4.3871647 1.2775308   0   0   0
1.9532652 -4.6105510 0.0874017   0   0   0
1.8371576 -4.3385949 0.2469210   0   0   0
0.9412104 -2.2238246 -0.4693901   0   0   0
1.8327199 -4.3323260 0.4115494   0   0   0
1.1047170 -2.6126868 -0.4492798   0   0   0
1.8353195 -4.3426951 0.5788794   0   0   0
1.3595066 -3.2184030 -0.4289801   0   0   0
1.8716976 -4.4330871 0.7621487   0   0   0
1.8103208 -4.2877171 -0.4071916   0   0   0
1.8510460 -4.3863105 0.9254236   0   0   0
1.8101401 -4.2914690 -0.2440949   0   0   0
1.8661234 -4.4263510 1.1090087   0   0   0
1.8566630 -4.4060596 -0.0834574   0   0   0
1.8499352 -4.3900937 1.2764955   0   0   0
1.8458716 -4.3997507 0.0832829   0   0   0
1.8181554 -4.3379313 0.2465024   0   0   0
0.9243353 -2.2053687 -0.4648107   0   0   0
1.8160464 -4.3350217 0.4112008   0   0   0
1.0955903 -2.6165270 -0.4492798   0   0   0
1.8255141 -4.3618935 0.5805856   0   0   0
1.3436677 -3.2121410 -0.4275177   0   0   0
1.8455520 -4.4119341 0.7574557   0   0   0
1.7799717 -4.2572464 -0.4037054   0   0   0
1.8538917 -4.4362197 0.9345825   0   0   0
1.7997678 -4.3088192 -0.2447229   0   0   0
1.8491596 -4.4292414 1.1081089   0   0   0
1.8328008 -4.3922136 -0.0830735   0   0   0
1.8308577 -4.3897127 1.2744250   0   0   0
1.8205289 -4.3821604 0.0828291   0   0   0
1.8037603 -4.3439366 0.2465024   0   0   0
0.9256623 -2.2303413 -0.4693901   0   0   0
1.7963228 -4.3302925 0.4101549   0   0   0
1.0872068 -2.6221601 -0.4495926   0   0   0
1.8155970 -4.3810761 0.5822917   0   0   0
1.3415630 -3.2388195 -0.4304425   0   0   0
1.8316360 -4.4241442 0.7583943   0   0   0
1.8534085 -4.4789454 0.9422148   0   0   0
1.7839529 -4.3132296 -0.2446183   0   0   0
1.8374099 -4.4446738 1.1103584   0   0   0
1.8136397 -4.3893438 -0.0828989   0   0   0
1.8169984 -4.3996479 1.2754603   0   0   0
1.8014176 -4.3792418 0.0826546   0   0   0
1.7878266 -4.3483592 0.2463977   0   0   0
0.9298112 -2.2626133 -0.4754960   0   0   0
1.7827103 -4.3402224 0.4105035   0   0   0
1.0742961 -2.6168023 -0.4480283   0   0   0
1.7995396 -4.3855505 0.5820480   0   0   0
1.3317557 -3.2471560 -0.4309300   0   0   0
1.8266993 -4.4539531 0.7624616   0   0   0
1.8347854 -4.4781210 0.9406883   0   0   0
1.7673722 -4.3157340 -0.2444089   0   0   0
1.8971805 -4.6350184 1.1562484   0   0   0
1.7801346 -4.3512286 -0.0820612   0   0   0
1.7935867 -4.3862942 1.2697662   0   0   0
1.7868745 -4.3873552 0.0826895   0   0   0
1.7771553 -4.3656726 0.2470257   0   0   0
0.9159884 -2.2512972 -0.4724431   0   0   0
1.7735537 -4.3611837 0.4118980   0   0   0
1.0554855 -2.5967466 -0.4439610   0   0   0
1.7864617 -4.3973227 0.5827792   0   0   0
1.3039824 -3.2113215 -0.4255678   0   0   0
1.8193160 -4.4804350 0.7659031   0   0   0
1.8206187 -4.4881369 0.9414516   0   0   0
1.7860669 -4.4051679 -0.2491192   0   0   0
1.9014830 -4.6921827 1.1688457   0   0   0
1.7641844 -4.3555625 -0.0820263   0   0   0
1.8870049 -4.6611296 1.3474119   0   0   0
1.7730445 -4.3972751 0.0827593   0   0   0
1.7566795 -4.3588821 0.2462930   0   0   0
0.9139926 -2.2690494 -0.4754960   0   0   0
1.7910601 -4.4486698 0.4195678   0   0   0
1.0560013 -2.6242385 -0.4480283   0   0   0
1.7777679 -4.4201072 0.5849728   0   0   0
1.2853607 -3.1974353 -0.4231304   0   0   0
1.8176643 -4.5215820 0.7718476   0   0   0
1.8210370 -4.5345450 0.9498472   0   0   0
1.7855588 -4.4484460 -0.2512126   0   0   0
1.8843671 -4.6969829 1.1683958   0   0   0
1.7459930 -4.3542700 -0.0818867   0   0   0
1.8808846 -4.6906714 1.3541412   0   0   0
1.7650976 -4.4220094 0.0831084   0   0   0
1.7488544 -4.3835382 0.2473397   0   0   0
0.9133384 -2.2904621 -0.4793122   0   0   0
1.7777334 -4.4604471 0.4200907   0   0   0
1.0439105 -2.6205681 -0.4467768   0   0   0
1.7689368 -4.4428845 0.5871665   0   0   0
1.2741918 -3.2019026 -0.4231304   0   0   0
1.8405806 -4.6251748 0.7884297   0   0   0
1.7201286 -4.3246892 -0.4071916   0   0   0
1.8175270 -4.5718884 0.9563347   0   0   0
1.7722325 -4.4602200 -0.2515266   0   0   0
1.8701179 -4.7089653 1.1697455   0   0   0
1.7263566 -4.3491863 -0.0816773   0   0   0
1.8658171 -4.7029208 1.3556942   0   0   0
1.7415679 -4.4076862 0.0827244   0   0   0
1.7489087 -4.4307897 0.2496425   0   0   0
0.9053376 -2.2936363 -0.4793122   0   0   0
1.7541097 -4.4462382 0.4181732   0   0   0
1.0340320 -2.6223584 -0.4464640   0   0   0
1.7665189 -4.4822752 0.5915538   0   0   0
1.2761030 -3.2395762 -0.4275177   0   0   0
1.8229765 -4.6278956 0.7878040   0   0   0
1.7312981 -4.3974070 -0.4134668   0   0   0
1.8080271 -4.5946470 0.9597693   0   0   0
1.7551906 -4.4626617 -0.2513173   0   0   0
1.8579468 -4.7263464 1.1724449   0   0   0
1.7177459 -4.3719367 -0.0819914   0   0   0
1.8459726 -4.6982939 1.3525883   0   0   0
1.7123331 -4.3783542 0.0820612   0   0   0
1.7356121 -4.4424485 0.2499565   0   0   0
0.8844660 -2.2638669 -0.4724431   0   0   0
1.7371293 -4.4486223 0.4178246   0   0   0
1.0212810 -2.6167509 -0.4448996   0   0   0
1.7898182 -4.5882800 0.6047157   0   0   0
1.2719979 -3.2625058 -0.4299550   0   0   0
1.8052850 -4.6327055 0.7874911   0   0   0
1.7043632 -4.3737208 -0.4106779   0   0   0
1.7955404 -4.6100772 0.9616773   0   0   0
1.7453985 -4.4836510 -0.2521546   0   0   0
1.8414375 -4.7328031 1.1724449   0   0   0
1.7075479 -4.3909522 -0.0822357   0   0   0
1.8315395 -4.7122307 1.3546589   0   0   0
1.6941520 -4.3768452 0.0819216   0   0   0
1.7093408 -4.4183760 0.2482818   0   0   0
1.7244630 -4.4620926 0.4185219   0   0   0
1.0064464 -2.6055584 -0.4423967   0   0   0
1.7995294 -4.6611672 0.6134903   0   0   0
1.2463093 -3.2298860 -0.4250803   0   0   0
1.8133797 -4.6994834 0.7978158   0   0   0
1.7105935 -4.4354115 -0.4159072   0   0   0
1.8034456 -4.6786003 0.9746523   0   0   0
1.8245171 -4.7357281 -0.2659713   0   0   0
1.8298076 -4.7519321 1.1755942   0   0   0
1.7102236 -4.4413775 -0.0830735   0   0   0
1.8214543 -4.7327019 1.3588000   0   0   0
1.6789129 -4.3805719 0.0818867   0   0   0
1.6874802 -4.4075287 0.2473397   0   0   0
1.7159943 -4.4866942 0.4202650   0   0   0
1.0006232 -2.6162618 -0.4436481   0   0   0
1.7833538 -4.6652548 0.6132465   0   0   0
1.2157543 -3.1820792 -0.4182556   0   0   0
1.8159911 -4.7556106 0.8062632   0   0   0
1.8152227 -4.7560890 0.9895354   0   0   0
1.8258872 -4.7865387 -0.2684835   0   0   0
1.8126511 -4.7543320 1.1746944   0   0   0
1.8186088 -4.7724605 -0.0891469   0   0   0
1.8083609 -4.7480578 1.3613882   0   0   0
1.6634973 -4.3907261 0.0819565   0   0   0
1.6684853 -4.4062127 0.2469210   0   0   0
1.7002431 -4.4948170 0.4204393   0   0   0
0.9961586 -2.6348664 -0.4461511   0   0   0
1.7640240 -4.6683541 0.6127591   0   0   0
1.2175542 -3.2238652 -0.4231304   0   0   0
1.8041321 -4.7770184 0.8087662   0   0   0
1.8004123 -4.7722082 0.9914435   0   0   0
1.8131322 -4.8084648 -0.2693208   0   0   0
1.7957569 -4.7649041 1.1755942   0   0   0
1.8074515 -4.7959349 -0.0894610   0   0   0
1.7929892 -4.7600775 1.3629411   0   0   0
1.6496303 -4.3980907 0.0819914   0   0   0
1.6537954 -4.4138803 0.2470257   0   0   0
1.6789557 -4.4857968 0.4190448   0   0   0
0.9860307 -2.6344553 -0.4455254   0   0   0
1.7589663 -4.7020670 0.6164151   0   0   0
1.1915625 -3.1869786 -0.4177681   0   0   0
1.7832974 -4.7721845 0.8068890   0   0   0
1.7852641 -4.7799915 0.9918252   0   0   0
1.7950814 -4.8088375 -0.2690068   0   0   0
1.7826708 -4.7781361 1.1773938   0   0   0
1.7927956 -4.8078359 -0.0895657   0   0   0
1.7743385 -4.7608765 1.3613882   0   0   0
1.6370509 -4.4113212 0.0821310   0   0   0
1.6412330 -4.4249580 0.2473397   0   0   0
1.7125257 -4.6221192 0.4312466   0   0   0
0.9603654 -2.5934224 -0.4380165   0   0   0
1.7763045 -4.7994004 0.6283583   0   0   0
1.1989022 -3.2393160 -0.4241053   0   0   0
1.7708891 -4.7873353 0.8084533   0   0   0
1.7692484 -4.7880357 0.9922068   0   0   0
1.7782844 -4.8150742 -0.2690068   0   0   0
1.7740789 -4.8062678 1.1827926   0   0   0
1.7768424 -4.8137546 -0.0895657   0   0   0
1.7592098 -4.7685467 1.3619058   0   0   0
1.6175869 -4.4035862 0.0818867   0   0   0
1.6250890 -4.4287850 0.2472351   0   0   0
1.7148945 -4.6785773 0.4359530   0   0   0
0.9653566 -2.6336870 -0.4442739   0   0   0
1.7583308 -4.7996726 0.6276271   0   0   0
1.1821274 -3.2285687 -0.4221554   0   0   0
1.7616348 -4.8138934 0.8118949   0   0   0
1.7520122 -4.7901888 0.9914435   0   0   0
1.7602501 -4.8153172 -0.2686928   0   0   0
1.7574622 -4.8102940 1.1823427   0   0   0
1.7648297 -4.8330763 -0.0898101   0   0   0
1.7465276 -4.7855470 1.3650116   0   0   0
1.6137233 -4.4433177 0.0825150   0   0   0
1.6096197 -4.4344306 0.2472351   0   0   0
1.6992319 -4.6864080 0.4361273   0   0   0
0.9489669 -2.6186357 -0.4411452   0   0   0
1.7427553 -4.8116843 0.6283583   0   0   0
1.1587995 -3.2011482 -0.4180119   0   0   0
1.7448205 -4.8200133 0.8118949   0   0   0
1.7384492 -4.8076556 0.9937333   0   0   0
1.7459835 -4.8311283 -0.2692162   0   0   0
1.7378337 -4.8112046 1.1809930   0   0   0
1.7486278 -4.8410880 -0.0898450   0   0   0
1.7370280 -4.8116022 1.3707057   0   0   0
1.7146421 -4.7704374 0.0884837   0   0   0
1.6008799 -4.4588200 0.2482818   0   0   0
1.7238919 -4.8067117 0.4467603   0   0   0
0.9409448 -2.6236276 -0.4414581   0   0   0
1.7328180 -4.8342551 0.6305520   0   0   0
1.1488472 -3.2068421 -0.4182556   0   0   0
1.7299825 -4.8316538 0.8128335   0   0   0
1.7291117 -4.8318787 0.9975494   0   0   0
1.7360068 -4.8538169 -0.2701582   0   0   0
1.7251494 -4.8261161 1.1832425   0   0   0
1.7270091 -4.8339805 -0.0896007   0   0   0
1.7202218 -4.8176362 1.3707057   0   0   0
1.7192391 -4.8388716 0.0896356   0   0   0
1.7116226 -4.8201010 0.2680648   0   0   0
1.7310809 -4.8802993 0.4530356   0   0   0
0.9273621 -2.6158876 -0.4395809   0   0   0
1.7177397 -4.8480582 0.6315269   0   0   0
1.1437122 -3.2297436 -0.4206930   0   0   0
1.7124470 -4.8358010 0.8125206   0   0   0
1.7113903 -4.8381838 0.9975494   0   0   0
1.7215336 -4.8695624 -0.2706816   0   0   0
1.7100461 -4.8397564 1.1850422   0   0   0
1.7174530 -4.8607195 -0.0899846   0   0   0
1.7040379 -4.8254332 1.3712233   0   0   0
1.7058363 -4.8520922 0.0897752   0   0   0
1.7040516 -4.8524284 0.2695302   0   0   0
1.7179919 -4.8975926 0.4540814   0   0   0
0.9193363 -2.6208125 -0.4398937   0   0   0
1.7042806 -4.8612209 0.6325019   0   0   0
1.1329957 -3.2335185 -0.4206930   0   0   0
1.6981680 -4.8492066 0.8137721   0   0   0
1.6940398 -4.8401263 0.9967862   0   0   0
1.7066950 -4.8790149 -0.2708909   0   0   0
1.7004187 -4.8637961 1.1895412   0   0   0
1.7070716 -4.8855627 -0.0903337   0   0   0
1.6884575 -4.8349997 1.3722586   0   0   0
1.6930970 -4.8756077 0.0900893   0   0   0
1.6875648 -4.8624152 0.2697395   0   0   0
1.7013350 -4.9076215 0.4544300   0   0   0
0.9092664 -2.6243232 -0.4398937   0   0   0
1.6836536 -4.8621016 0.6317707   0   0   0
1.1205716 -3.2378451 -0.4206930   0   0   0
1.6849057 -4.8684653 0.8159622   0   0   0
1.6792913 -4.8577283 0.9990759   0   0   0
1.6859917 -4.8798689 -0.2705769   0   0   0
1.6785503 -4.8610792 1.1872917   0   0   0
1.6943751 -4.9069080 -0.0906129   0   0   0
1.6751365 -4.8539388 1.3758820   0   0   0
1.6795184 -4.8887602 0.0902289   0   0   0
1.6712298 -4.8701654 0.2698442   0   0   0
1.5976262 -4.6609745 0.4310723   0   0   0
0.8973562 -2.6179807 -0.4383294   0   0   0
1.5832444 -4.6216460 0.5998409   0   0   0
1.1033983 -3.2227626 -0.4182556   0   0   0
1.6685409 -4.8761861 0.8162750   0   0   0
1.6669849 -4.8744161 1.0013656   0   0   0
1.6698002 -4.8854330 -0.2705769   0   0   0
1.6655709 -4.8758394 1.1895412   0   0   0
1.6733600 -4.9014379 -0.0904035   0   0   0
1.6619260 -4.8707267 1.3789879   0   0   0
1.6628745 -4.8986703 0.0902988   0   0   0
1.5964695 -4.7057455 0.2604237   0   0   0
1.5634422 -4.6136872 0.4261916   0   0   0
0.8947251 -2.6418330 -0.4417709   0   0   0
1.5618394 -4.6142558 0.5981347   0   0   0
1.0966678 -3.2418284 -0.4202055   0   0   0
1.6508766 -4.8801094 0.8159622   0   0   0
1.4268522 -4.2203037 -0.3897605   0   0   0
1.6509935 -4.8860730 1.0025105   0   0   0
1.6569952 -4.9066585 -0.2714143   0   0   0
1.6451961 -4.8745256 1.1877416   0   0   0
1.6579407 -4.9151174 -0.0905431   0   0   0
1.6405916 -4.8636846 1.3753644   0   0   0
1.6483095 -4.9120282 0.0904384   0   0   0
1.5754029 -4.7002030 0.2597957   0   0   0
1.5384679 -4.5926676 0.4237512   0   0   0
0.8854979 -2.6449401 -0.4417709   0   0   0
1.5444634 -4.6159145 0.5976473   0   0   0
1.0752722 -3.2155148 -0.4163057   0   0   0
1.6354836 -4.8936215 0.8172137   0   0   0
1.4121119 -4.2252586 -0.3897605   0   0   0
1.6345499 -4.8936684 1.0028921   0   0   0
1.6411225 -4.9162015 -0.2716236   0   0   0
1.6374218 -4.9079673 1.1944901   0   0   0
1.6395086 -4.9170807 -0.0904733   0   0   0
1.6258081 -4.8788288 1.3779526   0   0   0
1.6267464 -4.9044658 0.0901940   0   0   0
1.5660923 -4.7243594 0.2608424   0   0   0
1.5199221 -4.5904442 0.4230540   0   0   0
0.8750188 -2.6442642 -0.4411452   0   0   0
1.5283414 -4.6212776 0.5976473   0   0   0
1.0590576 -3.2041701 -0.4143558   0   0   0
1.6214897 -4.9086790 0.8187780   0   0   0
1.3973544 -4.2301621 -0.3897605   0   0   0
1.6168423 -4.8974799 1.0025105   0   0   0
1.6245517 -4.9266081 1.1976394   0   0   0
1.6138530 -4.8970369 1.3815761   0   0   0
1.5495917 -4.7297973 0.2608424   0   0   0
1.5088464 -4.6108704 0.4244485   0   0   0
1.5085005 -4.6152631 0.5961848   0   0   0
1.0527976 -3.2229432 -0.4163057   0   0   0
1.6086367 -4.9274540 0.8209681   0   0   0
1.6052177 -4.9198917 1.0059450   0   0   0
1.6055229 -4.9237411 -0.2714143   0   0   0
1.6049295 -4.9248375 1.1958398   0   0   0
1.6125724 -4.9512234 -0.0908921   0   0   0
1.6021336 -4.9191724 1.3862348   0   0   0
1.5137997 -4.6784373 0.2577023   0   0   0
1.4915162 -4.6123177 0.4240998   0   0   0
1.4917709 -4.6186117 0.5959411   0   0   0
1.0415411 -3.2265985 -0.4163057   0   0   0
1.5935015 -4.9365211 0.8215938   0   0   0
1.5880343 -4.9254650 1.0059450   0   0   0
1.5956766 -4.9521275 -0.2726703   0   0   0
1.5895209 -4.9359745 1.1971895   0   0   0
1.5989553 -4.9682434 -0.0911016   0   0   0
1.5817271 -4.9176552 1.3841643   0   0   0
1.4854974 -4.6434835 0.2555041   0   0   0
1.4766199 -4.6212917 0.4244485   0   0   0
1.4780540 -4.6313553 0.5969160   0   0   0
1.0278590 -3.2226496 -0.4153307   0   0   0
1.5777972 -4.9498567 0.8228453   0   0   0
1.5767907 -4.9496846 1.0097612   0   0   0
1.5826220 -4.9709893 -0.2734030   0   0   0
1.5728723 -4.9433499 1.1976394   0   0   0
1.5761494 -4.9566435 -0.0907874   0   0   0
1.5686474 -4.9360343 1.3877877   0   0   0
1.4560374 -4.6067438 0.2532014   0   0   0
1.4678478 -4.6554186 0.5993534   0   0   0
1.0261491 -3.2565110 -0.4192305   0   0   0
1.5631552 -4.9607138 0.8237839   0   0   0
1.5606822 -4.9589038 1.0105244   0   0   0
1.5652604 -4.9764834 -0.2734030   0   0   0
1.5579447 -4.9562464 1.1994390   0   0   0
1.5630331 -4.9754695 -0.0910318   0   0   0
1.5514078 -4.9414798 1.3877877   0   0   0
1.4244710 -4.5622295 0.2504799   0   0   0
1.2100271 -3.8801787 0.3555954   0   0   0
1.4474562 -4.6472469 0.5976473   0   0   0
1.0076957 -3.2373284 -0.4163057   0   0   0
1.5493522 -4.9774567 0.8256611   0   0   0
1.5416144 -4.9586972 1.0093796   0   0   0
1.5538057 -5.0009900 -0.2744497   0   0   0
1.5469914 -4.9821264 1.2043879   0   0   0
1.5509899 -4.9980839 -0.0913459   0   0   0
1.5347216 -4.9487103 1.3883054   0   0   0
1.3979423 -4.5328200 0.2485958   0   0   0
1.1853317 -3.8482008 0.3522835   0   0   0
1.4306418 -4.6503739 0.5974035   0   0   0
0.9882220 -3.2142620 -0.4128933   0   0   0
1.5081672 -4.9054204 0.8128335   0   0   0
1.5225671 -4.9584179 1.0082347   0   0   0
1.5339958 -4.9987458 -0.2740311   0   0   0
1.5301625 -4.9893591 1.2048378   0   0   0
1.5393938 -5.0225865 -0.0916949   0   0   0
1.5245299 -4.9740899 1.3939994   0   0   0
1.3565058 -4.4536058 0.2439902   0   0   0
1.1631939 -3.8237228 0.3496688   0   0   0
1.4178627 -4.6667356 0.5988659   0   0   0
0.9677683 -3.1873005 -0.4089935   0   0   0
1.4095388 -4.6422512 0.7684061   0   0   0
1.4197889 -4.6818874 0.9509920   0   0   0
1.5171168 -5.0059814 -0.2741357   0   0   0
1.5110424 -4.9890748 1.2034881   0   0   0
1.5102040 -4.9925879 1.3976228   0   0   0
1.3372988 -4.4489841 0.2434669   0   0   0
1.1435343 -3.8067701 0.3477514   0   0   0
1.4021345 -4.6735578 0.5991097   0   0   0
0.9543563 -3.1830534 -0.4080186   0   0   0
1.3910565 -4.6395745 0.7671546   0   0   0
1.3921738 -4.6492000 0.9433597   0   0   0
1.5013512 -5.0169869 -0.2744497   0   0   0
1.4964099 -5.0036541 1.2057377   0   0   0
1.5048649 -5.0351269 -0.0917298   0   0   0
1.4947461 -5.0012704 1.3986581   0   0   0
1.3180941 -4.4355933 0.0807697   0   0   0
1.3177830 -4.4402221 0.2427342   0   0   0
1.1206081 -3.7782661 0.3447881   0   0   0
1.3903226 -4.6936504 0.6010596   0   0   0
0.9438030 -3.1882688 -0.4082623   0   0   0
1.3712404 -4.6351707 0.7655903   0   0   0
1.3692573 -4.6314389 0.9387803   0   0   0
1.3095277 -4.4322517 -0.2422108   0   0   0
1.4839013 -5.0256678 1.2097868   0   0   0
1.4884117 -5.0441851 -0.0917997   0   0   0
1.4764055 -5.0067153 1.3986581   0   0   0
1.2573836 -4.2887994 0.0780123   0   0   0
1.3011525 -4.4409616 0.2425248   0   0   0
1.1056335 -3.7785235 0.3444395   0   0   0
1.3742238 -4.7025255 0.6015471   0   0   0
0.9348935 -3.2012341 -0.4094810   0   0   0
1.3533909 -4.6342405 0.7646517   0   0   0
1.3484251 -4.6232333 0.9361089   0   0   0
1.4698834 -5.0429416 -0.2752871   0   0   0
1.4671063 -5.0366858 1.2111365   0   0   0
1.4699139 -5.0496065 -0.0917997   0   0   0
1.4583798 -5.0099836 1.3981405   0   0   0
1.2296198 -4.2489822 0.0772094   0   0   0
1.2837578 -4.4418633 0.2423155   0   0   0
1.0880144 -3.7670467 0.3430450   0   0   0
0.7614433 -2.6380820 -0.4348878   0   0   0
1.3544996 -4.6958498 0.6000846   0   0   0
0.9209642 -3.1949408 -0.4082623   0   0   0
1.3385837 -4.6467625 0.7659031   0   0   0
1.3311926 -4.6241387 0.9353457   0   0   0
1.4561367 -5.0614776 -0.2760198   0   0   0
1.4489776 -5.0399034 1.2106866   0   0   0
1.4633225 -5.0931455 -0.0924978   0   0   0
1.4474715 -5.0412908 1.4053874   0   0   0
1.2158790 -4.2570941 0.0772793   0   0   0
1.2651838 -4.4326520 0.2415828   0   0   0
1.0715814 -3.7593252 0.3419991   0   0   0
0.7576417 -2.6597219 -0.4380165   0   0   0
1.3429913 -4.7177324 0.6022783   0   0   0
0.9038314 -3.1771334 -0.4055812   0   0   0
1.3239759 -4.6571070 0.7668417   0   0   0
1.3145067 -4.6268687 0.9349641   0   0   0
1.4422784 -5.0799788 -0.2767525   0   0   0
1.4319082 -5.0468053 1.2111365   0   0   0
1.4417167 -5.0847555 -0.0922534   0   0   0
1.4312730 -5.0479216 1.4059051   0   0   0
1.2010115 -4.2613124 0.0772793   0   0   0
1.2572837 -4.4639558 0.2430482   0   0   0
1.0552155 -3.7515350 0.3409533   0   0   0
0.7387312 -2.6281201 -0.4323849   0   0   0
1.3243678 -4.7147471 0.6013033   0   0   0
0.8916626 -3.1764466 -0.4050937   0   0   0
1.3082450 -4.6636021 0.7671546   0   0   0
1.3894972 -4.9565743 1.0006024   0   0   0
1.4083737 -5.0272859 -0.2736124   0   0   0
1.4163843 -5.0592792 1.2129361   0   0   0
1.4298853 -5.1109403 -0.0926374   0   0   0
1.4167667 -5.0640494 1.4090109   0   0   0
1.1823793 -4.2519926 0.0770349   0   0   0
1.2537401 -4.5147204 0.2455603   0   0   0
1.0346549 -3.7283179 0.3385129   0   0   0
0.7232182 -2.6078404 -0.4286304   0   0   0
1.3137339 -4.7403842 0.6039845   0   0   0
0.8890465 -3.2101490 -0.4089935   0   0   0
1.3439143 -4.8525753 0.7975029   0   0   0
1.4067272 -5.0862807 1.0257892   0   0   0
1.2865320 -4.6548548 -0.2530967   0   0   0
1.4028659 -5.0792197 1.2165353   0   0   0
1.4003312 -5.0734927 -0.0918695   0   0   0
1.3971691 -5.0654835 1.4079756   0   0   0
1.1675298 -4.2560939 0.0770349   0   0   0
1.2450982 -4.5419674 0.2468164   0   0   0
1.0211082 -3.7299851 0.3383386   0   0   0
0.7062920 -2.5817685 -0.4239374   0   0   0
