ply
format ascii 1.0
element vertex 1099
property float x
property float y
property float z
property uchar red
property uchar green
property uchar blue
end_header
-2.2664402 0.8886645 -0.4732063   0   0   0
-10.5258300 4.1292669 0.9892177   0   0   0
-2.6405287 1.0364071 -0.4492798   0   0   0
-10.5135590 4.1286881 1.3868731   0   0   0
-3.2443838 1.2747273 -0.4280051   0   0   0
-10.5128650 4.1305334 1.7889845   0   0   0
-10.5053810 4.1318270 2.1943034   0   0   0
-5.9306022 2.3337353 -0.3340081   0   0   0
-10.4607350 4.1184844 2.5954853   0   0   0
-9.9862675 3.9316821 -0.1873341   0   0   0
-10.5023760 4.1369959 3.0245594   0   0   0
-9.7216051 3.8451308 0.1824824   0   0   0
-10.4623630 4.1423427 0.5897216   0   0   0
-2.2633244 0.8965705 -0.4732063   0   0   0
-10.4891260 4.1571746 0.9871259   0   0   0
-2.6370774 1.0451577 -0.4492798   0   0   0
-10.4850470 4.1576758 1.3849232   0   0   0
-3.2585906 1.2927995 -0.4304425   0   0   0
-10.4763500 4.1584596 1.7852301   0   0   0
-10.4843230 4.1637428 2.1927770   0   0   0
-5.9228306 2.3533890 -0.3340081   0   0   0
-10.4705620 4.1625096 2.6013340   0   0   0
-9.7810970 3.8903939 -0.1837389   0   0   0
-10.4842810 4.1722023 3.0235241   0   0   0
-9.6665967 3.8644059 0.1817145   0   0   0
-10.4292960 4.1714208 0.5886748   0   0   0
-2.2419537 0.8971714 -0.4693901   0   0   0
-10.4375580 4.1789520 0.9836397   0   0   0
-2.6368964 1.0562852 -0.4499055   0   0   0
-10.4476270 4.1872156 1.3819984   0   0   0
-3.2522154 1.3034278 -0.4301988   0   0   0
-10.4361020 4.1847108 1.7808500   0   0   0
-10.4453070 4.1926347 2.1878159   0   0   0
-5.9586466 2.3929448 -0.3365202   0   0   0
-10.4425780 4.1957724 2.5981847   0   0   0
-9.7155029 3.9036376 -0.1827616   0   0   0
-10.4176730 4.1878777 3.0085126   0   0   0
-9.6147874 3.8807228 0.1809814   0   0   0
-10.3998570 4.2018149 0.5878375   0   0   0
-2.2715714 0.9182356 -0.4762593   0   0   0
-10.4136710 4.2116254 0.9827682   0   0   0
-2.6260540 1.0620611 -0.4486541   0   0   0
-10.4079220 4.2114139 1.3785860   0   0   0
-3.2642060 1.3214764 -0.4323924   0   0   0
-10.4067840 4.2151814 1.7783470   0   0   0
-10.3985940 4.2139772 2.1809468   0   0   0
-5.9062567 2.3946805 -0.3340081   0   0   0
-10.4159660 4.2252504 2.5950354   0   0   0
-9.6851413 3.9307591 -0.1824475   0   0   0
-10.4012010 4.2234898 3.0079949   0   0   0
-9.5808136 3.9059569 0.1805975   0   0   0
-10.3599750 4.2257185 0.5863721   0   0   0
-2.2539721 0.9198290 -0.4732063   0   0   0
-10.3830470 4.2393571 0.9811994   0   0   0
-2.6186734 1.0697273 -0.4480283   0   0   0
-10.3637570 4.2357025 1.3746862   0   0   0
-3.2411992 1.3253493 -0.4299550   0   0   0
-10.3781210 4.2436872 1.7758440   0   0   0
-10.3602010 4.2405813 2.1759858   0   0   0
-5.9274342 2.4273931 -0.3356828   0   0   0
-10.3795150 4.2527172 2.5896365   0   0   0
-9.6646516 3.9598220 -0.1823078   0   0   0
-10.3782010 4.2542945 3.0054068   0   0   0
-9.5567131 3.9331402 0.1803881   0   0   0
-10.3193080 4.2512049 0.5849066   0   0   0
-2.2507476 0.9276912 -0.4732063   0   0   0
-10.3497660 4.2679792 0.9794562   0   0   0
-2.6370260 1.0874421 -0.4517827   0   0   0
-10.3313040 4.2624756 1.3722488   0   0   0
-3.2110975 1.3254863 -0.4265427   0   0   0
-10.3340320 4.2678232 1.7708381   0   0   0
-10.3297520 4.2681661 2.1725512   0   0   0
-5.8898199 2.4348273 -0.3340081   0   0   0
-10.3365420 4.2751966 2.5824381   0   0   0
-9.6378361 3.9881815 -0.1820635   0   0   0
-10.3311590 4.2771937 2.9960893   0   0   0
-9.5410791 3.9657079 0.1803532   0   0   0
-10.2940890 4.2808003 0.5842786   0   0   0
-2.2367831 0.9306250 -0.4709166   0   0   0
-10.3061260 4.2900262 0.9766672   0   0   0
-2.6259198 1.0936027 -0.4505313   0   0   0
-10.2907080 4.2878236 1.3688365   0   0   0
-3.2357673 1.3489082 -0.4304425   0   0   0
-10.2906500 4.2899073 1.7658322   0   0   0
-10.2948600 4.2958811 2.1683534   0   0   0
-5.9513221 2.4846116 -0.3379856   0   0   0
-10.2963820 4.3007366 2.5761395   0   0   0
-9.5802731 4.0016223 -0.1812258   0   0   0
-10.2848340 4.2980215 2.9867718   0   0   0
-9.5297198 3.9980990 0.1803881   0   0   0
-10.2606690 4.3089740 0.5832319   0   0   0
-2.2552408 0.9475528 -0.4754960   0   0   0
-10.2617010 4.3136218 0.9738783   0   0   0
-2.6149947 1.0992426 -0.4492798   0   0   0
-10.2654540 4.3173078 1.3673740   0   0   0
-3.2532329 1.3688697 -0.4333674   0   0   0
-10.2537650 4.3166049 1.7620778   0   0   0
-10.2570370 4.3200898 2.1633924   0   0   0
-5.9761796 2.5182936 -0.3398697   0   0   0
-10.2659020 4.3280435 2.5720904   0   0   0
-9.5496639 4.0280449 -0.1809117   0   0   0
-10.2626490 4.3308916 2.9847012   0   0   0
-9.5021141 4.0275377 0.1801437   0   0   0
-10.2308550 4.3385262 0.5823945   0   0   0
-2.2193878 0.9416171 -0.4686269   0   0   0
-10.2227390 4.3392952 0.9716122   0   0   0
-2.6236757 1.1142247 -0.4514699   0   0   0
-10.2276370 4.3455883 1.3644492   0   0   0
-3.2628090 1.3869969 -0.4353173   0   0   0
-10.2222730 4.3454158 1.7592620   0   0   0
-10.2122300 4.3453558 2.1572865   0   0   0
-5.9705847 2.5417451 -0.3400790   0   0   0
-10.2374200 4.3602955 2.5689410   0   0   0
-9.6128157 4.0942657 -0.1823777   0   0   0
-10.2048150 4.3485130 2.9722779   0   0   0
-9.5034144 4.0653175 0.1804230   0   0   0
-10.1899440 4.3632058 0.5809291   0   0   0
-2.2377430 0.9586356 -0.4732063   0   0   0
-10.2020360 4.3725981 0.9710893   0   0   0
-2.6145195 1.1205845 -0.4505313   0   0   0
-10.1876280 4.3685279 1.3610368   0   0   0
-3.2654888 1.4009397 -0.4362922   0   0   0
-10.1961510 4.3763969 1.7573848   0   0   0
-10.1761160 4.3699008 2.1527071   0   0   0
-5.9768037 2.5678375 -0.3409164   0   0   0
-10.1906780 4.3803679 2.5608428   0   0   0
-9.6370431 4.1443860 -0.1831107   0   0   0
-10.1895740 4.3841079 2.9722779   0   0   0
-9.5097607 4.1113004 0.1808418   0   0   0
-10.1445530 4.3878383 0.5792544   0   0   0
-2.2234036 0.9621527 -0.4709166   0   0   0
-10.1640000 4.4004620 0.9689975   0   0   0
-2.6410123 1.1439628 -0.4558500   0   0   0
-10.1525650 4.3997200 1.3585994   0   0   0
-3.2566893 1.4113203 -0.4358048   0   0   0
-10.1528570 4.4019516 1.7526917   0   0   0
-10.1502570 4.4050341 2.1507990   0   0   0
-5.9636876 2.5881361 -0.3407071   0   0   0
-10.1495290 4.4068234 2.5545442   0   0   0
-9.6529684 4.1932242 -0.1837040   0   0   0
-10.1645780 4.4175751 2.9696897   0   0   0
-9.5217350 4.1540079 0.1813305   0   0   0
-10.1153030 4.4150630 0.5784170   0   0   0
-2.2202008 0.9695205 -0.4709166   0   0   0
-10.1347460 4.4277616 0.9676031   0   0   0
-2.6444444 1.1558790 -0.4571015   0   0   0
-10.1233690 4.4270000 1.3566495   0   0   0
-3.2629040 1.4268843 -0.4372672   0   0   0
-10.1201070 4.4276776 1.7495631   0   0   0
-10.1248040 4.4339440 2.1485093   0   0   0
-5.9770265 2.6175125 -0.3419631   0   0   0
-10.1187960 4.4334178 2.5504951   0   0   0
-10.0712360 4.4146757 -0.1919416   0   0   0
-10.1197970 4.4380677 2.9608899   0   0   0
-9.5518323 4.2048969 0.1821682   0   0   0
-10.0859840 4.4421421 0.5775796   0   0   0
-2.2277530 0.9816274 -0.4732063   0   0   0
-10.0963070 4.4508972 0.9653370   0   0   0
-2.6333672 1.1614533 -0.4558500   0   0   0
-10.0904710 4.4525320 1.3542121   0   0   0
-3.2363607 1.4280799 -0.4343423   0   0   0
-10.0909110 4.4548304 1.7470601   0   0   0
-10.0920870 4.4595595 2.1446931   0   0   0
-5.9934271 2.6496664 -0.3434285   0   0   0
-10.0951270 4.4630088 2.5482455   0   0   0
-10.0693430 4.4537110 -0.1921859   0   0   0
-10.0802910 4.4606573 2.9536429   0   0   0
-9.6255569 4.2755130 0.1838436   0   0   0
-10.0529460 4.4674531 0.5765329   0   0   0
-2.2065462 0.9810336 -0.4693901   0   0   0
-10.0523650 4.4713974 0.9625480   0   0   0
-2.6258917 1.1685732 -0.4552243   0   0   0
-10.0575160 4.4778946 1.3517748   0   0   0
-3.2352341 1.4404190 -0.4348298   0   0   0
-10.0508210 4.4770158 1.7426799   0   0   0
-10.0395880 4.4762127 2.1366791   0   0   0
-5.9955517 2.6744086 -0.3440566   0   0   0
-10.0660340 4.4901100 2.5446463   0   0   0
-10.0326050 4.4772984 -0.1917670   0   0   0
-10.0372200 4.4814585 2.9453607   0   0   0
-10.0130690 4.4979513 0.5752768   0   0   0
-2.2348233 1.0043694 -0.4762593   0   0   0
-10.0307000 4.5100800 0.9621994   0   0   0
-2.6247826 1.1807255 -0.4558500   0   0   0
-10.0231680 4.5108998 1.3495811   0   0   0
-3.2873528 1.4794643 -0.4426295   0   0   0
-10.0201590 4.5116491 1.7404899   0   0   0
-10.0072190 4.5100248 2.1336262   0   0   0
-6.0107309 2.7088989 -0.3455220   0   0   0
-10.0230570 4.5192673 2.5383477   0   0   0
-9.2416775 4.1688944 -0.1769674   0   0   0
-9.9980191 4.5121782 2.9391491   0   0   0
-9.9691910 4.5159332 0.1910340   0   0   0
-9.9762685 4.5212378 0.5740208   0   0   0
-2.2171760 1.0052891 -0.4732063   0   0   0
-10.0066170 4.5392028 0.9613278   0   0   0
-2.6370420 1.1967703 -0.4586658   0   0   0
-9.9810413 4.5318028 1.3459250   0   0   0
-3.2751986 1.4870747 -0.4416545   0   0   0
-9.9835609 4.5350486 1.7367354   0   0   0
-9.9707622 4.5334341 2.1290468   0   0   0
-6.0308052 2.7420429 -0.3471967   0   0   0
-9.9796339 4.5395698 2.5311493   0   0   0
-9.2168816 4.1945481 -0.1767580   0   0   0
-9.9794849 4.5437070 2.9381138   0   0   0
-9.6888919 4.4318307 0.1859728   0   0   0
-9.9414691 4.5494613 0.5729741   0   0   0
-2.2134766 1.0134087 -0.4732063   0   0   0
-9.9609304 4.5625731 0.9585389   0   0   0
-2.6344337 1.2072504 -0.4589787   0   0   0
-9.9463195 4.5600817 1.3434876   0   0   0
-3.2588993 1.4941051 -0.4401921   0   0   0
-9.9417349 4.5600798 1.7323553   0   0   0
-9.9451584 4.5658526 2.1271387   0   0   0
-6.0316052 2.7691284 -0.3478248   0   0   0
-9.9381363 4.5647291 2.5248506   0   0   0
-9.9259042 4.5633071 2.9272434   0   0   0
-9.7740066 4.5100163 0.1878926   0   0   0
-9.8846206 4.5631495 0.5705666   0   0   0
-2.2243626 1.0273287 -0.4762593   0   0   0
-9.9113813 4.5797011 0.9552269   0   0   0
-2.6501395 1.2250977 -0.4624203   0   0   0
-9.9167292 4.5863735 1.3415377   0   0   0
-3.2755476 1.5149032 -0.4431169   0   0   0
-9.9032525 4.5822390 1.7282880   0   0   0
-9.9157109 4.5922065 2.1240857   0   0   0
-6.0296387 2.7924721 -0.3482435   0   0   0
-9.9123355 4.5927445 2.5221512   0   0   0
-9.5084964 4.4076472 -0.1829361   0   0   0
-9.9089646 4.5953847 2.9267258   0   0   0
-9.7535583 4.5398717 0.1877879   0   0   0
-9.8802977 4.6009618 0.5711946   0   0   0
-2.2067068 1.0280666 -0.4732063   0   0   0
-9.8816930 4.6058096 0.9538325   0   0   0
-2.6084660 1.2163477 -0.4558500   0   0   0
-9.8834761 4.6108409 1.3391003   0   0   0
-3.2633101 1.5224000 -0.4421420   0   0   0
-9.8736827 4.6083706 1.7257850   0   0   0
-9.8630747 4.6076130 2.1160718   0   0   0
-6.0275835 2.8158331 -0.3486621   0   0   0
-9.8829274 4.6189888 2.5185520   0   0   0
-9.8586742 4.6118473 2.9163730   0   0   0
-9.4940836 4.4574611 0.1830757   0   0   0
-9.1454947 4.2957471 0.5295352   0   0   0
-2.2175002 1.0420586 -0.4762593   0   0   0
-9.8591530 4.6351624 0.9531352   0   0   0
-2.6258684 1.2350801 -0.4596045   0   0   0
-9.8501701 4.6351382 1.3366630   0   0   0
-3.2618360 1.5349035 -0.4426295   0   0   0
-9.8529849 4.6385634 1.7248464   0   0   0
-9.8370853 4.6352737 2.1137821   0   0   0
-6.0543473 2.8528325 -0.3507556   0   0   0
-9.8464036 4.6417648 2.5131532   0   0   0
-8.9238040 4.2087392 -0.1722203   0   0   0
-9.8450737 4.6453389 2.9168906   0   0   0
-9.8029413 4.6463948 0.1893586   0   0   0
-9.3949711 4.4550334 0.5449220   0   0   0
-2.1994758 1.0434472 -0.4732063   0   0   0
-9.8294985 4.6652868 0.9519150   0   0   0
-2.6373838 1.2523219 -0.4624203   0   0   0
-9.8080125 4.6592847 1.3332506   0   0   0
-3.2741190 1.5553663 -0.4450668   0   0   0
-9.8109397 4.6627742 1.7204662   0   0   0
-9.8076199 4.6653939 2.1111107   0   0   0
-6.0722037 2.8897908 -0.3524303   0   0   0
-9.8082089 4.6677735 2.5077544   0   0   0
-9.4824661 4.5147809 -0.1833201   0   0   0
-9.8105406 4.6730840 2.9117143   0   0   0
-9.6882515 4.6314413 0.1874388   0   0   0
-9.7693337 4.6722974 0.5675311   0   0   0
-2.2013164 1.0532773 -0.4743512   0   0   0
-9.7924086 4.6875339 0.9498233   0   0   0
-2.6314348 1.2602077 -0.4621074   0   0   0
-9.7817665 4.6866372 1.3317882   0   0   0
-3.2546214 1.5593533 -0.4431169   0   0   0
-9.7776103 4.6867444 1.7173376   0   0   0
-9.7814744 4.6927961 2.1088210   0   0   0
-6.0733910 2.9150965 -0.3530584   0   0   0
-9.7751076 4.6918405 2.5032553   0   0   0
-9.7740942 4.6955526 2.9055026   0   0   0
-9.2680330 4.4763517 0.1796551   0   0   0
-9.7397094 4.7062625 0.5669031   0   0   0
-2.2041408 1.0655233 -0.4758776   0   0   0
-9.7484019 4.7146608 0.9473829   0   0   0
-2.6565837 1.2853870 -0.4674262   0   0   0
-9.7557273 4.7224063 1.3308132   0   0   0
-3.2912179 1.5931634 -0.4489667   0   0   0
-9.7356055 4.7147635 1.7132703   0   0   0
-9.7431243 4.7226041 2.1046232   0   0   0
-6.0945037 2.9540758 -0.3549425   0   0   0
-9.7526878 4.7293418 2.5023555   0   0   0
-9.7225868 4.7168412 -0.1886256   0   0   0
-9.7325728 4.7237845 2.8987733   0   0   0
-9.2081936 4.4851693 0.1787825   0   0   0
-9.3093049 4.5364295 0.5427239   0   0   0
-2.2094188 1.0771283 -0.4777857   0   0   0
-9.7201787 4.7408479 0.9461627   0   0   0
-2.6345536 1.2855269 -0.4642975   0   0   0
-9.7114714 4.7407982 1.3269134   0   0   0
-3.2680778 1.5953604 -0.4465293   0   0   0
-9.7163672 4.7452883 1.7126445   0   0   0
-9.7062443 4.7445414 2.1000438   0   0   0
-6.1205614 2.9918118 -0.3570359   0   0   0
-9.7264474 4.7565203 2.4996561   0   0   0
-9.2883673 4.5442952 -0.1804928   0   0   0
-9.6995031 4.7475399 2.8935969   0   0   0
-9.1234998 4.4853634 0.1774561   0   0   0
-9.6725643 4.7573950 0.5649143   0   0   0
-2.2072177 1.0860857 -0.4781673   0   0   0
-9.6866495 4.7685226 0.9445939   0   0   0
-2.6191915 1.2899378 -0.4624203   0   0   0
-9.6708815 4.7649549 1.3237448   0   0   0
-3.2728927 1.6125920 -0.4479917   0   0   0
-9.6918224 4.7773751 1.7113930   0   0   0
-9.6694225 4.7705297 2.0958460   0   0   0
-6.1126105 3.0170590 -0.3572452   0   0   0
-9.6879789 4.7817873 2.4942573   0   0   0
-9.2088940 4.5473199 -0.1792711   0   0   0
-9.6716452 4.7779246 2.8904911   0   0   0
-9.3880677 4.6541520 0.1829012   0   0   0
-7.8871388 3.9117788 0.4613938   0   0   0
-2.2053626 1.0942718 -0.4785490   0   0   0
-9.6565064 4.7935314 0.9431995   0   0   0
-2.6361301 1.3091598 -0.4661747   0   0   0
-9.6372495 4.7881659 1.3213074   0   0   0
-3.2390829 1.6093042 -0.4440919   0   0   0
-9.6405486 4.7919031 1.7051357   0   0   0
-9.6377300 4.7946983 2.0924114   0   0   0
-6.0989959 3.0355327 -0.3570359   0   0   0
-9.6458996 4.8008630 2.4875088   0   0   0
-9.1543825 4.5582236 -0.1785032   0   0   0
-9.6453728 4.8048024 2.8873853   0   0   0
-9.1964911 4.5992385 0.1794805   0   0   0
-7.8198510 3.9124762 0.4582536   0   0   0
-2.2103075 1.1063571 -0.4804570   0   0   0
-9.0126258 4.5131868 0.8818418   0   0   0
-2.6403749 1.3227777 -0.4677390   0   0   0
-9.6133783 4.8182192 1.3203325   0   0   0
-3.2405444 1.6241588 -0.4450668   0   0   0
-9.5955097 4.8113591 1.7001298   0   0   0
-9.5998784 4.8177438 2.0878320   0   0   0
-6.1353081 3.0790331 -0.3597574   0   0   0
-9.6081840 4.8240115 2.4821099   0   0   0
-9.1276939 4.5847652 -0.1782938   0   0   0
-9.5940189 4.8210934 2.8770325   0   0   0
-9.0615585 4.5693850 0.1771419   0   0   0
-7.8086170 3.9392858 0.4583583   0   0   0
-2.2118845 1.1163343 -0.4816019   0   0   0
-9.5880837 4.8411893 0.9397132   0   0   0
-2.6395002 1.3333075 -0.4683648   0   0   0
-9.5849457 4.8438044 1.3186263   0   0   0
-3.2599446 1.6474307 -0.4484792   0   0   0
-9.5689246 4.8378049 1.6982526   0   0   0
-9.5768424 4.8460061 2.0863056   0   0   0
-6.1482312 3.1110845 -0.3611181   0   0   0
-9.5834409 4.8514461 2.4798604   0   0   0
-9.5710857 4.8493893 2.8749620   0   0   0
-7.6993799 3.9162618 0.4527060   0   0   0
-2.1941726 1.1165400 -0.4785490   0   0   0
-9.5488949 4.8612072 0.9374472   0   0   0
-2.6297836 1.3393636 -0.4674262   0   0   0
-9.5458369 4.8638468 1.3154577   0   0   0
-3.2969131 1.6798611 -0.4543289   0   0   0
-9.5387499 4.8623331 1.6957496   0   0   0
-4.3290204 2.2076498 -0.4251457   0   0   0
-9.5344877 4.8643541 2.0805813   0   0   0
-6.1538925 3.1396246 -0.3620602   0   0   0
-9.5499430 4.8743400 2.4753614   0   0   0
-9.5308667 4.8687977 2.8677150   0   0   0
-2.2323806 1.1453183 -0.4877078   0   0   0
-9.5220868 4.8873870 0.9364013   0   0   0
-2.6182987 1.3444676 -0.4661747   0   0   0
-9.5172951 4.8891257 1.3137515   0   0   0
-3.2771985 1.6835283 -0.4523790   0   0   0
-9.5173026 4.8912292 1.6948110   0   0   0
-4.3216757 2.2219932 -0.4251457   0   0   0
-9.5078295 4.8905568 2.0782916   0   0   0
-6.1434473 3.1600144 -0.3620602   0   0   0
-9.5198644 4.8988486 2.4717622   0   0   0
-9.5215386 4.9039146 2.8697856   0   0   0
-7.7895464 4.0308205 0.1530925   0   0   0
-7.6339116 3.9519742 0.4505079   0   0   0
-2.1965866 1.1376298 -0.4808387   0   0   0
-9.4979433 4.9211633 0.9358784   0   0   0
-2.6289009 1.3626928 -0.4689905   0   0   0
-9.4825920 4.9174087 1.3115579   0   0   0
-3.2636611 1.6924440 -0.4514041   0   0   0
-9.4809170 4.9186400 1.6916823   0   0   0
-4.3131121 2.2385708 -0.4251457   0   0   0
-9.4645878 4.9143623 2.0729489   0   0   0
-6.1277234 3.1817395 -0.3618508   0   0   0
-9.4767733 4.9227896 2.4654636   0   0   0
-9.4786422 4.9279626 2.8625386   0   0   0
-7.8293252 4.0843766 0.1541396   0   0   0
-7.6278469 3.9809638 0.4509266   0   0   0
-2.2206471 1.1594462 -0.4869446   0   0   0
-9.4603801 4.9415631 0.9337866   0   0   0
-2.6261184 1.3723180 -0.4693034   0   0   0
-9.4486412 4.9396302 1.3091205   0   0   0
-3.2545124 1.7014180 -0.4509166   0   0   0
-9.4435490 4.9390670 1.6879279   0   0   0
-4.3056650 2.2528613 -0.4251457   0   0   0
-9.4569360 4.9502733 2.0748570   0   0   0
-6.1525285 3.2205672 -0.3639442   0   0   0
-9.4500385 4.9487643 2.4627641   0   0   0
-9.0762850 4.7550570 -0.1788523   0   0   0
-9.4502708 4.9530901 2.8589152   0   0   0
-7.6319426 4.0204629 0.4520780   0   0   0
-2.2057579 1.1624723 -0.4846549   0   0   0
-9.4184246 4.9657720 0.9315206   0   0   0
-2.6278186 1.3860778 -0.4705549   0   0   0
-9.4208265 4.9712418 1.3079018   0   0   0
-3.2865798 1.7342834 -0.4562788   0   0   0
-9.4087927 4.9669912 1.6851121   0   0   0
-9.4135566 4.9737087 2.0695144   0   0   0
-6.1836948 3.2685726 -0.3665610   0   0   0
-9.4206298 4.9795493 2.4600647   0   0   0
-9.0968505 4.8104377 -0.1796202   0   0   0
-9.4123989 4.9794028 2.8532212   0   0   0
-9.1352064 4.8490978 0.1805277   0   0   0
-7.6750152 4.0757247 0.4554275   0   0   0
-2.2157611 1.1771491 -0.4877078   0   0   0
-9.2453246 4.9137567 0.9160069   0   0   0
-2.6249519 1.3957117 -0.4708677   0   0   0
-9.3885164 4.9940648 1.3057081   0   0   0
-3.2667901 1.7377145 -0.4543289   0   0   0
-9.3852945 4.9944527 1.6838606   0   0   0
-9.3814162 4.9965917 2.0660798   0   0   0
-6.1833978 3.2946957 -0.3671891   0   0   0
-9.3903066 5.0034308 2.4564655   0   0   0
-9.3526034 4.9854374 -0.1849955   0   0   0
-9.3736748 4.9987707 2.8464919   0   0   0
-9.0820496 4.8595528 0.1797947   0   0   0
-7.7090004 4.1266031 0.4582536   0   0   0
-2.2326138 1.1956124 -0.4922872   0   0   0
-9.3466464 5.0074280 0.9276857   0   0   0
-2.6203091 1.4044087 -0.4708677   0   0   0
-9.3456618 5.0110999 1.3020521   0   0   0
-3.2956905 1.7678744 -0.4592037   0   0   0
-9.3564955 5.0190116 1.6816705   0   0   0
-9.3440385 5.0165304 2.0615004   0   0   0
-6.1724382 3.3151825 -0.3671891   0   0   0
-9.3624844 5.0306443 2.4537661   0   0   0
-9.3360197 5.0164243 -0.1849955   0   0   0
-9.3587484 5.0307421 2.8470095   0   0   0
-8.8898824 4.7947171 0.1763042   0   0   0
-7.6875187 4.1496925 0.4578350   0   0   0
-2.1938775 1.1847410 -0.4846549   0   0   0
-9.3396279 5.0457055 0.9287316   0   0   0
-2.6208514 1.4159070 -0.4718063   0   0   0
-9.3167686 5.0354567 1.3003459   0   0   0
-3.2513939 1.7580221 -0.4538414   0   0   0
-9.3232816 5.0431827 1.6788547   0   0   0
-9.3169918 5.0418825 2.0592107   0   0   0
-6.1824874 3.3470432 -0.3684451   0   0   0
-9.3183337 5.0468147 2.4465677   0   0   0
-9.3043866 5.0413615 -0.1847163   0   0   0
-9.3207501 5.0523322 2.8407978   0   0   0
-8.9530497 4.8712304 0.1779098   0   0   0
-7.6800036 4.1803211 0.4582536   0   0   0
-2.1931770 1.1942696 -0.4854181   0   0   0
-9.0840103 4.9486505 0.9050252   0   0   0
-2.6295204 1.4330657 -0.4743093   0   0   0
-9.2895357 5.0648193 1.2991272   0   0   0
-3.2484140 1.7718284 -0.4543289   0   0   0
-9.2744055 5.0586701 1.6732230   0   0   0
-9.2829409 5.0675309 2.0557761   0   0   0
-6.1894601 3.3802109 -0.3695965   0   0   0
-9.2929331 5.0771969 2.4447681   0   0   0
-9.2586545 5.0584688 -0.1841578   0   0   0
-9.2911913 5.0783511 2.8371744   0   0   0
-9.0367880 4.9557000 0.1798994   0   0   0
-7.6863754 4.2186354 0.4595097   0   0   0
-2.1889949 1.2019180 -0.4854181   0   0   0
-9.2675031 5.0906411 0.9250711   0   0   0
-2.6264850 1.4427287 -0.4746222   0   0   0
-9.2657302 5.0917726 1.2981522   0   0   0
-3.2564369 1.7902414 -0.4562788   0   0   0
-9.2497675 5.0872052 1.6719716   0   0   0
-9.2574849 5.0935543 2.0538680   0   0   0
-6.1957140 3.4103483 -0.3706432   0   0   0
-9.2589750 5.0985854 2.4402690   0   0   0
-9.1971531 5.0666345 -0.1832852   0   0   0
-9.2378776 5.0911711 2.8263040   0   0   0
-9.2014061 5.0920284 0.1835644   0   0   0
-7.6953245 4.2603223 0.4609751   0   0   0
-2.2086190 1.2232498 -0.4907607   0   0   0
-9.2278697 5.1129865 0.9229793   0   0   0
-2.6157429 1.4499300 -0.4736836   0   0   0
-9.2287506 5.1176859 1.2957149   0   0   0
-3.2724219 1.8146798 -0.4594474   0   0   0
-9.2172409 5.1134069 1.6694686   0   0   0
-9.2052466 5.1109558 2.0466173   0   0   0
-6.2087635 3.4486602 -0.3722133   0   0   0
-9.2274057 5.1274738 2.4371197   0   0   0
-8.7048249 4.8370867 -0.1738260   0   0   0
-9.2039591 5.1165476 2.8216452   0   0   0
-9.1862162 5.1234874 0.1835993   0   0   0
-2.1974792 1.2271231 -0.4892343   0   0   0
-9.1856146 5.1315627 0.9205389   0   0   0
-2.6385127 1.4740106 -0.4786895   0   0   0
-9.1892022 5.1356715 1.2925463   0   0   0
-3.2851269 1.8367479 -0.4621286   0   0   0
-9.1941635 5.1426569 1.6685300   0   0   0
-9.1916739 5.1433708 2.0473805   0   0   0
-6.2147209 3.4789862 -0.3732600   0   0   0
-9.1899484 5.1466184 2.4317209   0   0   0
-9.1624064 5.1332950 -0.1833201   0   0   0
-9.1809873 5.1458106 2.8200923   0   0   0
-9.1491027 5.1447406 0.1832154   0   0   0
-8.9229500 5.0196199 0.5365482   0   0   0
-2.2002415 1.2382550 -0.4907607   0   0   0
-9.1841725 5.1707923 0.9221078   0   0   0
-2.6109765 1.4706093 -0.4746222   0   0   0
-9.1625722 5.1628441 1.2913276   0   0   0
-3.2475685 1.8306577 -0.4577412   0   0   0
-9.1615721 5.1643874 1.6657142   0   0   0
-9.1548552 5.1648131 2.0431827   0   0   0
-6.2094965 3.5045851 -0.3736787   0   0   0
-9.1566550 5.1700428 2.4276718   0   0   0
-9.1571445 5.1724271 2.8180218   0   0   0
-8.7962185 4.9847708 0.1764787   0   0   0
-9.1207984 5.1729156 0.5495275   0   0   0
-2.2027359 1.2498031 -0.4922872   0   0   0
-9.1400764 5.1880668 0.9194931   0   0   0
-2.6352900 1.4958366 -0.4799409   0   0   0
-9.1419488 5.1912395 1.2908401   0   0   0
-3.2621923 1.8531832 -0.4606661   0   0   0
-9.1263151 5.1865756 1.6625855   0   0   0
-9.1359711 5.1941729 2.0428011   0   0   0
-6.2395069 3.5488558 -0.3761909   0   0   0
-9.1242164 5.1917053 2.4236227   0   0   0
-9.1222462 5.1948002 2.8128454   0   0   0
-9.0747681 5.1866573 0.1824475   0   0   0
-8.9813169 5.1353253 0.5422005   0   0   0
-2.1915433 1.2535853 -0.4907607   0   0   0
-9.1046182 5.2100444 0.9177500   0   0   0
-2.6246468 1.5025411 -0.4790023   0   0   0
-9.1090798 5.2168192 1.2888902   0   0   0
-3.2726024 1.8749957 -0.4631035   0   0   0
-9.0961570 5.2115267 1.6603954   0   0   0
-9.0930282 5.2139510 2.0374585   0   0   0
-6.2559096 3.5885955 -0.3779703   0   0   0
-9.0983658 5.2212325 2.4218231   0   0   0
-8.7951356 5.0472194 -0.1770023   0   0   0
-9.0889789 5.2179546 2.8081866   0   0   0
-9.0523201 5.2137277 0.1823427   0   0   0
-9.0636982 5.2244951 0.5482715   0   0   0
-2.2007600 1.2690734 -0.4938137   0   0   0
-9.0725698 5.2338289 0.9163555   0   0   0
-2.6025391 1.5013656 -0.4758736   0   0   0
-9.0728177 5.2360826 1.2862091   0   0   0
-3.2938729 1.9017184 -0.4670033   0   0   0
-9.0573833 5.2313907 1.6566410   0   0   0
-9.0586893 5.2342537 2.0336423   0   0   0
-6.2491625 3.6123197 -0.3782843   0   0   0
-9.0725666 5.2464973 2.4195735   0   0   0
-9.0440247 5.2320986 -0.1823777   0   0   0
-9.0673654 5.2477140 2.8071514   0   0   0
-9.0201312 5.2414148 0.1820984   0   0   0
-9.0375818 5.2536651 0.5478528   0   0   0
-2.1926996 1.2751572 -0.4930504   0   0   0
-9.0395488 5.2590311 0.9149610   0   0   0
-2.6223641 1.5262523 -0.4805667   0   0   0
-9.0320599 5.2588950 1.2832842   0   0   0
-3.2796853 1.9103554 -0.4660284   0   0   0
-9.0381485 5.2645525 1.6566410   0   0   0
-9.0317401 5.2650429 2.0321158   0   0   0
-6.2317955 3.6342757 -0.3780750   0   0   0
-9.0388890 5.2734386 2.4159743   0   0   0
-9.0330545 5.2721481 2.8024926   0   0   0
-8.9992492 5.2692770 0.1820286   0   0   0
-8.9916169 5.2690237 0.5461780   0   0   0
-2.1848477 1.2808176 -0.4922872   0   0   0
-9.0228549 5.2915609 0.9151353   0   0   0
-2.6002488 1.5249469 -0.4774380   0   0   0
-9.0094346 5.2858039 1.2825530   0   0   0
-3.2870283 1.9292593 -0.4679783   0   0   0
-9.0009788 5.2850672 1.6531994   0   0   0
-9.0023812 5.2880038 2.0294445   0   0   0
-6.2455389 3.6700994 -0.3796450   0   0   0
-9.0045524 5.2935077 2.4114753   0   0   0
-9.0029409 5.2967899 2.7988692   0   0   0
-8.9635800 5.2904939 0.1816795   0   0   0
-8.9001419 5.2551461 0.5416772   0   0   0
-2.1856595 1.2910512 -0.4934321   0   0   0
-8.9932508 5.3143574 0.9139151   0   0   0
-2.6119146 1.5440667 -0.4805667   0   0   0
-8.9755509 5.3081260 1.2803593   0   0   0
-3.2905247 1.9467862 -0.4694407   0   0   0
-8.9766030 5.3108631 1.6519480   0   0   0
-8.9804891 5.3173952 2.0286812   0   0   0
-6.2670581 3.7122358 -0.3817385   0   0   0
-8.9726078 5.3169596 2.4078761   0   0   0
-8.9543327 5.3061302 -0.1816795   0   0   0
-8.9620615 5.3128237 2.7916222   0   0   0
-8.9373932 5.3150784 0.1815050   0   0   0
-8.9315159 5.3158044 0.5447126   0   0   0
-2.1777658 1.2966640 -0.4926688   0   0   0
-8.9472577 5.3294039 0.9111261   0   0   0
-2.5949000 1.5456435 -0.4783766   0   0   0
-8.9578992 5.3378608 1.2803593   0   0   0
-3.2704100 1.9495556 -0.4674908   0   0   0
-8.9376508 5.3300237 1.6481935   0   0   0
-8.9341445 5.3300467 2.0221937   0   0   0
-6.2993042 3.7596107 -0.3844599   0   0   0
-8.9532536 5.3456856 2.4074262   0   0   0
-8.9220222 5.3291509 -0.1814003   0   0   0
-8.9351699 5.3391201 2.7890340   0   0   0
-8.8972728 5.3354588 0.1810862   0   0   0
-8.9146185 5.3479763 0.5448173   0   0   0
-2.1664929 1.3002168 -0.4911424   0   0   0
-8.9217674 5.3565009 0.9104289   0   0   0
-2.5993780 1.5612464 -0.4802538   0   0   0
-8.9161545 5.3573661 1.2771907   0   0   0
-3.2836590 1.9738015 -0.4704157   0   0   0
-8.9122189 5.3571186 1.6469420   0   0   0
-8.9044551 5.3566840 2.0199040   0   0   0
-6.3008836 3.7919423 -0.3854020   0   0   0
-8.9152358 5.3674085 2.4024773   0   0   0
-8.8947998 5.3551050 -0.1812258   0   0   0
-8.8883456 5.3533331 2.7802342   0   0   0
-8.8709731 5.3597634 0.1809117   0   0   0
-8.8873508 5.3738943 0.5442939   0   0   0
-2.1972175 1.3291103 -0.4991563   0   0   0
-8.8944925 5.3824535 0.9095573   0   0   0
-2.6077066 1.5780394 -0.4827568   0   0   0
-8.8779620 5.3745673 1.2742659   0   0   0
-3.2770956 1.9846797 -0.4704157   0   0   0
-8.8867068 5.3841011 1.6456906   0   0   0
-8.8732112 5.3780420 2.0168511   0   0   0
-6.3002294 3.8200647 -0.3861347   0   0   0
-8.8840584 5.3888577 2.3988780   0   0   0
-8.4657576 5.1371478 -0.1728486   0   0   0
-8.8712562 5.3853291 2.7807518   0   0   0
-8.2680973 5.0349914 0.1689742   0   0   0
-8.8490134 5.3908670 0.5430379   0   0   0
-2.1860921 1.3323024 -0.4976299   0   0   0
-8.8714912 5.4088076 0.9090344   0   0   0
-2.6055552 1.5891896 -0.4833825   0   0   0
-8.8540635 5.4024226 1.2735346   0   0   0
-3.2569397 1.9872643 -0.4684658   0   0   0
-8.8468845 5.4001614 1.6416233   0   0   0
-8.8527089 5.4079590 2.0164695   0   0   0
-6.3430956 3.8764023 -0.3895889   0   0   0
-8.8435793 5.4066218 2.3930293   0   0   0
-8.8018412 5.3811048 -0.1800739   0   0   0
-8.8500529 5.4127017 2.7797165   0   0   0
-8.2530597 5.0634274 0.1690091   0   0   0
-8.8233337 5.4175428 0.5426192   0   0   0
-2.1646995 1.3296497 -0.4938137   0   0   0
-8.8372793 5.4303541 0.9074656   0   0   0
-2.6053200 1.6009237 -0.4843211   0   0   0
-8.8225708 5.4234374 1.2715847   0   0   0
-3.2432193 1.9944616 -0.4674908   0   0   0
-8.8077908 5.4185890 1.6378688   0   0   0
-8.8129910 5.4239088 2.0115084   0   0   0
-6.3404107 3.9036982 -0.3902169   0   0   0
-8.8156461 5.4297866 2.3903299   0   0   0
-8.7949213 5.4191392 -0.1803183   0   0   0
-8.8163044 5.4344379 2.7750578   0   0   0
-8.2267550 5.0908704 0.1688695   0   0   0
-8.7898327 5.4414353 0.5417818   0   0   0
-2.1748334 1.3468778 -0.4972482   0   0   0
-8.7952988 5.4490668 0.9051995   0   0   0
-2.6142651 1.6202814 -0.4871369   0   0   0
-8.7966199 5.4541354 1.2708535   0   0   0
-3.2557804 2.0194561 -0.4704157   0   0   0
-8.7761208 5.4435462 1.6356788   0   0   0
-8.7870958 5.4546019 2.0103636   0   0   0
-6.3287683 3.9301221 -0.3904262   0   0   0
-8.7881110 5.4594827 2.3885303   0   0   0
-8.7716028 5.4492273 -0.1802485   0   0   0
-8.7717150 5.4514190 2.7672932   0   0   0
-8.1894644 5.1054285 0.1684506   0   0   0
-8.7640069 5.4678556 0.5413631   0   0   0
-2.1701187 1.3544612 -0.4972482   0   0   0
-8.7660843 5.4734036 0.9041537   0   0   0
-2.5954730 1.6205721 -0.4846340   0   0   0
-8.7616486 5.4727596 1.2684161   0   0   0
-3.2659003 2.0407610 -0.4728530   0   0   0
-8.7503656 5.4699591 1.6344273   0   0   0
-8.7456554 5.4691377 2.0050209   0   0   0
-6.3343261 3.9627394 -0.3915776   0   0   0
-8.7666546 5.4865275 2.3876305   0   0   0
-8.7440535 5.4745069 -0.1800739   0   0   0
-8.7428091 5.4758521 2.7641874   0   0   0
-8.1580473 5.1254735 0.1681714   0   0   0
-8.7322987 5.4883855 0.5405258   0   0   0
-2.1822354 1.3721003 -0.5010644   0   0   0
-8.7360802 5.4950172 0.9029335   0   0   0
-2.6165510 1.6464548 -0.4896399   0   0   0
-8.7256922 5.4927350 1.2659787   0   0   0
-3.2856331 2.0690736 -0.4767529   0   0   0
-8.7254923 5.4947357 1.6331758   0   0   0
-8.7198675 5.4954454 2.0034945   0   0   0
-6.3491766 4.0029342 -0.3933570   0   0   0
-8.7243736 5.5025412 2.3813319   0   0   0
-8.7292341 5.5056067 -0.1801437   0   0   0
-8.7262363 5.5058451 2.7647050   0   0   0
-8.1308675 5.1460818 0.1679620   0   0   0
-8.6962147 5.5081463 0.5394790   0   0   0
-2.1724575 1.3765569 -0.4999196   0   0   0
-8.7168458 5.5254784 0.9029335   0   0   0
-2.6110768 1.6551226 -0.4896399   0   0   0
-8.6973710 5.5152618 1.2645163   0   0   0
-3.2552862 2.0650706 -0.4733405   0   0   0
-8.7029232 5.5230430 1.6325501   0   0   0
-8.6999386 5.5232791 2.0031128   0   0   0
-6.4033062 4.0667978 -0.3975439   0   0   0
-8.6929199 5.5230816 2.3777326   0   0   0
-8.6812727 5.5178085 -0.1795504   0   0   0
-8.7004433 5.5321255 2.7626345   0   0   0
-8.1119516 5.1758483 0.1679620   0   0   0
-8.6668335 5.5320206 0.5388510   0   0   0
-2.1593657 1.3788489 -0.4980115   0   0   0
-8.6756774 5.5419289 0.9006675   0   0   0
-2.6149801 1.6710637 -0.4915171   0   0   0
-8.6704080 5.5428253 1.2635414   0   0   0
-3.2711083 2.0919610 -0.4767529   0   0   0
-8.6602929 5.5384884 1.6281699   0   0   0
-8.6631005 5.5445457 1.9992967   0   0   0
-6.4219983 4.1117787 -0.3996374   0   0   0
-8.6627725 5.5485992 2.3750332   0   0   0
-8.6602751 5.5469996 -0.1795154   0   0   0
-8.6729467 5.5572508 2.7600463   0   0   0
-8.0796035 5.1929893 0.1676478   0   0   0
-8.6323524 5.5525156 0.5379090   0   0   0
-2.1578415 1.3885028 -0.4987747   0   0   0
-8.6412019 5.5624731 0.8990986   0   0   0
-2.5828484 1.6626188 -0.4865112   0   0   0
-8.6486417 5.5693974 1.2630539   0   0   0
-3.2641531 2.1027969 -0.4767529   0   0   0
-8.6409072 5.5686847 1.6281699   0   0   0
-8.6364162 5.5679240 1.9973886   0   0   0
-6.4368615 4.1514550 -0.4014168   0   0   0
-8.6410501 5.5751825 2.3741334   0   0   0
-8.6139778 5.5598450 -0.1789570   0   0   0
-8.6323972 5.5738683 2.7533170   0   0   0
-8.1209321 5.2617124 0.1689044   0   0   0
-8.6179459 5.5858733 0.5382230   0   0   0
-2.1661597 1.4045715 -0.5018277   0   0   0
-8.6167180 5.5893499 0.8985757   0   0   0
-2.5866796 1.6785260 -0.4883884   0   0   0
-8.6131855 5.5913310 1.2608602   0   0   0
-3.2567931 2.1141781 -0.4767529   0   0   0
-8.6081627 5.5902062 1.6256670   0   0   0
-8.5961969 5.5867026 1.9928091   0   0   0
-6.4390776 4.1847822 -0.4024635   0   0   0
-8.6231702 5.6063736 2.3745833   0   0   0
-8.6047919 5.5986991 2.7507288   0   0   0
-8.0197084 5.2339678 0.1671592   0   0   0
-8.5826513 5.6035020 0.5371763   0   0   0
-2.1631338 1.4128206 -0.5022093   0   0   0
-8.5881282 5.6113544 0.8975298   0   0   0
-2.5959806 1.6968215 -0.4912042   0   0   0
-8.5829666 5.6122580 1.2591541   0   0   0
-3.2730244 2.1401758 -0.4801652   0   0   0
-8.5862714 5.6165585 1.6250412   0   0   0
-8.5776235 5.6151779 1.9928091   0   0   0
-6.4468886 4.2203329 -0.4038242   0   0   0
-8.5849682 5.6221267 2.3691845   0   0   0
-8.5829471 5.6250850 2.7496935   0   0   0
-8.5517669 5.6260112 0.1786777   0   0   0
-8.5420354 5.6217454 0.5359202   0   0   0
-2.1628603 1.4239782 -0.5033541   0   0   0
-8.5658399 5.6416979 0.8973555   0   0   0
-2.5996411 1.7128458 -0.4930814   0   0   0
-8.5441071 5.6316613 1.2564729   0   0   0
-3.2419541 2.1368631 -0.4767529   0   0   0
-8.5524349 5.6392918 1.6225383   0   0   0
-8.5471534 5.6400909 1.9905194   0   0   0
-6.4506382 4.2582599 -0.4050803   0   0   0
-8.5496674 5.6438921 2.3651354   0   0   0
-8.5352599 5.6365204 -0.1785381   0   0   0
-8.5477656 5.6469216 2.7450348   0   0   0
-7.9362990 5.2588997 0.1661818   0   0   0
-8.5133577 5.6434197 0.5352922   0   0   0
-2.1368560 1.4170374 -0.4983931   0   0   0
-8.5304816 5.6590581 0.8956124   0   0   0
-2.6021764 1.7269186 -0.4946458   0   0   0
-8.5303463 5.6632575 1.2572041   0   0   0
-3.2480807 2.1563857 -0.4787028   0   0   0
-8.5172320 5.6566929 1.6194096   0   0   0
-8.5300382 5.6694900 1.9909011   0   0   0
-6.4763980 4.3061679 -0.4075924   0   0   0
-8.5227907 5.6668179 2.3628859   0   0   0
-8.4898815 5.6470736 -0.1779796   0   0   0
-8.5177344 5.6677446 2.7414113   0   0   0
-8.1813687 5.4645506 0.1717317   0   0   0
-1.8649862 1.2461440 -0.5178373   0   0   0
-8.4892951 5.6723656 0.5350828   0   0   0
-2.1463377 1.4346789 -0.5018277   0   0   0
-8.4947768 5.6803185 0.8940436   0   0   0
-2.6023970 1.7408377 -0.4958973   0   0   0
-8.4946842 5.6845486 1.2550105   0   0   0
-3.2764503 2.1925643 -0.4840650   0   0   0
-8.4849515 5.6801799 1.6172195   0   0   0
-8.4912596 5.6886962 1.9867033   0   0   0
-6.4911946 4.3487581 -0.4094765   0   0   0
-8.4938695 5.6925928 2.3606364   0   0   0
-8.4691269 5.6781526 -0.1779796   0   0   0
-8.4808598 5.6881648 2.7362349   0   0   0
-8.4469237 5.6825193 0.1777004   0   0   0
-1.8931780 1.2740822 -0.5268354   0   0   0
-8.4638103 5.6960255 0.5346641   0   0   0
-2.1562254 1.4516563 -0.5052622   0   0   0
-8.4709358 5.7051180 0.8935207   0   0   0
-2.5966098 1.7494580 -0.4958973   0   0   0
-8.4708485 5.7093583 1.2542793   0   0   0
-3.2856226 2.2145121 -0.4865024   0   0   0
-8.4578794 5.7027641 1.6156552   0   0   0
-8.4544469 5.7047436 1.9825055   0   0   0
-6.5164725 4.3970712 -0.4119887   0   0   0
-8.4717151 5.7185476 2.3597366   0   0   0
-8.4386502 5.6983724 -0.1777353   0   0   0
-8.4443415 5.7043617 2.7305409   0   0   0
-8.2012330 5.5568282 0.1729184   0   0   0
-1.8566806 1.2584855 -0.5178373   0   0   0
-8.4316489 5.7150963 0.5338268   0   0   0
-2.1611493 1.4654095 -0.5075519   0   0   0
-8.4453750 5.7287035 0.8928234   0   0   0
-2.5809867 1.7514039 -0.4940200   0   0   0
-8.4338025 5.7251531 1.2515982   0   0   0
-3.2946851 2.2365447 -0.4889398   0   0   0
-8.4291167 5.7241216 1.6137779   0   0   0
-8.4176213 5.7206096 1.9783077   0   0   0
-6.5315896 4.4388637 -0.4138727   0   0   0
-8.4430357 5.7400356 2.3570371   0   0   0
-8.4157954 5.7258126 2.7274351   0   0   0
-8.3875776 5.7237629 0.1772466   0   0   0
-8.3961552 5.7317644 0.5327800   0   0   0
-2.1433078 1.4637105 -0.5044990   0   0   0
-8.4181059 5.7510583 0.8919519   0   0   0
-2.6110441 1.7844744 -0.5009032   0   0   0
-8.4032998 5.7452465 1.2498920   0   0   0
-3.2610309 2.2295321 -0.4850400   0   0   0
-8.4019360 5.7464662 1.6122136   0   0   0
-4.4216308 3.0252873 -0.4687236   0   0   0
-8.4067053 5.7540364 1.9802158   0   0   0
-6.5497971 4.4830608 -0.4159662   0   0   0
-8.3917960 5.7459826 2.3480391   0   0   0
-8.3049847 5.6886710 -0.1757108   0   0   0
-8.3919808 5.7504129 2.7258822   0   0   0
-1.8478495 1.2714168 -0.5178373   0   0   0
-8.3652184 5.7557066 0.5321520   0   0   0
-2.1411630 1.4737825 -0.5052622   0   0   0
-8.3723557 5.7649245 0.8893372   0   0   0
-2.5979790 1.7895501 -0.4996517   0   0   0
-8.3772822 5.7726285 1.2491608   0   0   0
-3.2691833 2.2527331 -0.4874774   0   0   0
-8.3645538 5.7660109 1.6090849   0   0   0
-4.4301953 3.0550460 -0.4708153   0   0   0
-8.3742471 5.7770061 1.9775444   0   0   0
-6.5629142 4.5274512 -0.4178503   0   0   0
-8.3706795 5.7767015 2.3480391   0   0   0
-6.7388366 4.6522845 -0.1429352   0   0   0
-8.3676689 5.7789368 2.7248469   0   0   0
-8.3260442 5.7673765 0.1767929   0   0   0
-1.9012864 1.3174953 -0.5340338   0   0   0
-2.1475585 1.4887042 -0.5079335   0   0   0
-8.3499180 5.7903858 0.8889886   0   0   0
-2.5952765 1.8004073 -0.5002774   0   0   0
-8.3499392 5.7947179 1.2479421   0   0   0
-3.2551716 2.2590346 -0.4865024   0   0   0
-8.3405190 5.7903375 1.6081463   0   0   0
-4.4233130 3.0719933 -0.4711639   0   0   0
-8.3324713 5.7890619 1.9722018   0   0   0
-6.5642670 4.5605855 -0.4188970   0   0   0
-8.3434763 5.7988671 2.3457896   0   0   0
-6.7545671 4.6962950 -0.1435984   0   0   0
-8.3262559 5.7912100 2.7176000   0   0   0
-6.7160246 4.6886498 0.1429701   0   0   0
-1.8389284 1.2842862 -0.5178373   0   0   0
-2.1372595 1.4931922 -0.5067887   0   0   0
-8.3221069 5.8163855 0.8882913   0   0   0
-2.5951359 1.8144350 -0.5015289   0   0   0
-8.3188843 5.8184565 1.2464796   0   0   0
-3.2794037 2.2937052 -0.4913772   0   0   0
-8.3111477 5.8152058 1.6065820   0   0   0
-4.3075586 3.0150647 -0.4600080   0   0   0
-8.3047646 5.8150588 1.9706753   0   0   0
-6.5925113 4.6178411 -0.4218278   0   0   0
-8.3173779 5.8260544 2.3444399   0   0   0
-8.2986465 5.8172528 2.7155294   0   0   0
-1.8346594 1.2903772 -0.5178373   0   0   0
-7.7402620 5.4439846 0.4959355   0   0   0
-2.1355075 1.5025308 -0.5075519   0   0   0
-8.0551238 5.6696412 0.8617960   0   0   0
-2.5810289 1.8173445 -0.4999646   0   0   0
-8.2849377 5.8357227 1.2442860   0   0   0
-3.2717795 2.3045675 -0.4913772   0   0   0
-8.2853590 5.8381833 1.6053305   0   0   0
-8.2709953 5.8323837 1.9672407   0   0   0
-6.6032745 4.6580978 -0.4235026   0   0   0
-8.2820883 5.8423706 2.3399409   0   0   0
-7.7019202 5.4351205 -0.1645413   0   0   0
-8.2793102 5.8447401 2.7155294   0   0   0
-7.6457859 5.4175260 0.1635640   0   0   0
-1.8617146 1.3196314 -0.5268354   0   0   0
-8.2416755 5.8419127 0.5294305   0   0   0
-2.1299861 1.5103478 -0.5075519   0   0   0
-8.2601726 5.8593570 0.8860253   0   0   0
-2.5727397 1.8256491 -0.4996517   0   0   0
-8.2489247 5.8557076 1.2420923   0   0   0
-3.2402474 2.3010221 -0.4879649   0   0   0
-8.2542419 5.8616490 1.6034533   0   0   0
-8.2527636 5.8649338 1.9680040   0   0   0
-6.5991800 4.6915268 -0.4243399   0   0   0
-8.2389492 5.8594459 2.3340921   0   0   0
-8.2531102 5.8716863 2.7139765   0   0   0
-7.6310343 5.4451736 0.1636338   0   0   0
-1.8573283 1.3257979 -0.5268354   0   0   0
-7.7791266 5.5549449 0.5009598   0   0   0
-2.1374811 1.5269031 -0.5106049   0   0   0
-8.2412903 5.8893130 0.8861996   0   0   0
-2.5763146 1.8410616 -0.5015289   0   0   0
-8.2326909 5.8853387 1.2425798   0   0   0
-3.2519754 2.3256112 -0.4908897   0   0   0
-8.2208779 5.8812312 1.6009503   0   0   0
-8.2300764 5.8899836 1.9672407   0   0   0
-6.5998257 4.7250112 -0.4253866   0   0   0
-8.2210576 5.8878697 2.3345420   0   0   0
-7.6043108 5.4481677 -0.1632847   0   0   0
-8.2152917 5.8880799 2.7082825   0   0   0
-6.7270005 4.7841654 -0.1440871   0   0   0
-7.5038737 5.3960531 0.1613301   0   0   0
-1.9125704 1.3758404 -0.5439316   0   0   0
-7.8002221 5.6112236 0.5035766   0   0   0
-2.1209836 1.5263277 -0.5079335   0   0   0
-8.2045129 5.9064041 0.8844565   0   0   0
-2.5711524 1.8516463 -0.5018418   0   0   0
-8.2014009 5.9085114 1.2411174   0   0   0
-3.2450402 2.3386753 -0.4911335   0   0   0
-8.1906832 5.9029618 1.5990731   0   0   0
-8.1956946 5.9109214 1.9641878   0   0   0
-6.6099983 4.7690351 -0.4271661   0   0   0
-8.1915215 5.9122594 2.3322925   0   0   0
-7.6063259 5.4898925 -0.1637385   0   0   0
-8.1868571 5.9110664 2.7056943   0   0   0
-7.4341102 5.3833760 0.1602131   0   0   0
-1.8638089 1.3501644 -0.5313344   0   0   0
-7.4312618 5.3852686 0.4809674   0   0   0
-2.1172323 1.5348743 -0.5083152   0   0   0
-8.0612654 5.8461108 0.8712088   0   0   0
-2.5697954 1.8636415 -0.5027804   0   0   0
-8.1721217 5.9286816 1.2396550   0   0   0
-3.2420868 2.3529213 -0.4918647   0   0   0
-8.1636340 5.9268745 1.5978216   0   0   0
-8.1601632 5.9265298 1.9603716   0   0   0
-6.6264636 4.8144076 -0.4292595   0   0   0
-8.1655652 5.9348081 2.3304929   0   0   0
-7.7051848 5.6022549 -0.1662865   0   0   0
-8.1614868 5.9361988 2.7041414   0   0   0
-7.5412846 5.5012157 0.1629357   0   0   0
-1.8590846 1.3566621 -0.5313344   0   0   0
-7.8570352 5.7336507 0.5097522   0   0   0
-2.1184735 1.5465172 -0.5098416   0   0   0
-8.1544654 5.9550630 0.8834106   0   0   0
-2.5760350 1.8819226 -0.5052833   0   0   0
-8.1401580 5.9489725 1.2379488   0   0   0
-3.2358691 2.3648308 -0.4921084   0   0   0
-8.1439349 5.9539135 1.5978216   0   0   0
-8.1378415 5.9538188 1.9599900   0   0   0
-6.6321817 4.8540232 -0.4307249   0   0   0
-8.1385097 5.9586703 2.3286933   0   0   0
-8.1386397 5.9609476 2.7031061   0   0   0
-7.4972147 5.5072517 0.1623772   0   0   0
-1.8388721 1.3512801 -0.5268354   0   0   0
-7.8772040 5.7906161 0.5123690   0   0   0
-2.1272970 1.5643705 -0.5132762   0   0   0
-7.5654944 5.5655440 0.8217043   0   0   0
-2.5856921 1.9021603 -0.5084120   0   0   0
-8.1107929 5.9688740 1.2364864   0   0   0
-3.2196015 2.3702273 -0.4908897   0   0   0
-8.1199211 5.9799621 1.5971959   0   0   0
-4.4192252 3.2557533 -0.4802281   0   0   0
-8.1085695 5.9737852 1.9577003   0   0   0
-6.6626746 4.9103527 -0.4337604   0   0   0
-8.1030200 5.9740616 2.3241943   0   0   0
-8.1115644 5.9847327 2.7010356   0   0   0
-7.4801938 5.5370729 0.1624470   0   0   0
-1.8620969 1.3788854 -0.5349336   0   0   0
-8.0768411 5.9809122 0.5267091   0   0   0
-2.1170907 1.5682808 -0.5121313   0   0   0
-8.0998867 6.0023564 0.8820161   0   0   0
-2.5628340 1.8998607 -0.5052833   0   0   0
-8.0824834 5.9938316 1.2355114   0   0   0
-3.2236469 2.3914736 -0.4928396   0   0   0
-8.0799599 5.9941462 1.5934415   0   0   0
-8.0850437 6.0022942 1.9573187   0   0   0
-6.1443609 4.5632051 -0.4011028   0   0   0
-8.0779410 6.0013962 2.3232945   0   0   0
-7.5860915 5.6359833 -0.1649601   0   0   0
-8.0797707 6.0049444 2.6974121   0   0   0
-7.5451630 5.6239912 0.1642620   0   0   0
-1.8606387 1.3873825 -0.5358334   0   0   0
-8.0270978 5.9875741 0.5248250   0   0   0
-2.1037361 1.5697907 -0.5102233   0   0   0
-8.0517427 6.0103329 0.8790528   0   0   0
-2.5723496 1.9201653 -0.5084120   0   0   0
-8.0705155 6.0265398 1.2367301   0   0   0
-3.2252409 2.4092785 -0.4943021   0   0   0
-8.0558224 6.0199491 1.5928157   0   0   0
-8.0572327 6.0231948 1.9554106   0   0   0
-6.6282318 4.9567469 -0.4337604   0   0   0
-8.0579952 6.0281506 2.3232945   0   0   0
-8.0463884 6.0238493 2.6932710   0   0   0
-7.6300279 5.7308696 0.1665658   0   0   0
-1.8711208 1.4058989 -0.5403324   0   0   0
-8.0125354 6.0203565 0.5252437   0   0   0
-2.1155067 1.5901001 -0.5144211   0   0   0
-8.0275288 6.0360073 0.8787042   0   0   0
-2.5526654 1.9200811 -0.5059091   0   0   0
-8.0261662 6.0393695 1.2333178   0   0   0
-3.2259047 2.4282464 -0.4957645   0   0   0
-8.0284469 6.0432805 1.5915642   0   0   0
-8.0162849 6.0385106 1.9508312   0   0   0
-6.6770133 5.0314904 -0.4381566   0   0   0
-8.0296223 6.0529519 2.3214949   0   0   0
-8.0222274 6.0495735 2.6922357   0   0   0
-6.1245116 4.6319318 0.1340345   0   0   0
-1.8509076 1.4003383 -0.5358334   0   0   0
-7.3257810 5.5444656 0.4814908   0   0   0
-2.1099433 1.5974749 -0.5144211   0   0   0
-8.0016455 6.0603830 0.8781813   0   0   0
-2.5588817 1.9380768 -0.5084120   0   0   0
-7.9934369 6.0563616 1.2313678   0   0   0
-3.2178346 2.4389305 -0.4957645   0   0   0
-8.0041548 6.0688813 1.5909385   0   0   0
-7.9993448 6.0674333 1.9515944   0   0   0
-6.6905222 5.0765425 -0.4401454   0   0   0
-8.0001925 6.0724766 2.3187955   0   0   0
-7.2941363 5.5385576 -0.1598640   0   0   0
-7.9949080 6.0728653 2.6901652   0   0   0
-6.1345320 4.6749533 0.1346279   0   0   0
-1.8209666 1.3882096 -0.5286350   0   0   0
-7.5239858 5.7358928 0.4958308   0   0   0
-2.0918655 1.5953061 -0.5113681   0   0   0
-7.3975118 5.6435597 0.8140346   0   0   0
-2.5486205 1.9450457 -0.5077863   0   0   0
-7.9632964 6.0795953 1.2301492   0   0   0
-3.2151843 2.4555276 -0.4967394   0   0   0
-7.9719325 6.0883912 1.5887484   0   0   0
-7.9676937 6.0895586 1.9493047   0   0   0
-6.7051905 5.1265053 -0.4423435   0   0   0
-7.9654988 6.0922869 2.3151963   0   0   0
-7.9690582 6.0972140 2.6886122   0   0   0
-6.1554843 4.7232692 0.1354307   0   0   0
-1.8163531 1.3942405 -0.5286350   0   0   0
-7.3882781 5.6733237 0.4881898   0   0   0
-2.0971826 1.6109701 -0.5140394   0   0   0
-2.5640851 1.9703373 -0.5121664   0   0   0
-7.9430920 6.1059692 1.2301492   0   0   0
-3.1881405 2.4516548 -0.4938146   0   0   0
-7.9302773 6.1005235 1.5846811   0   0   0
-7.9396768 6.1099603 1.9473966   0   0   0
-6.7293017 5.1803892 -0.4450650   0   0   0
-7.9467962 6.1198569 2.3156462   0   0   0
-7.9339549 6.1143809 2.6839535   0   0   0
-6.1713531 4.7714845 0.1361637   0   0   0
-1.8513090 1.4318868 -0.5403324   0   0   0
-7.7017782 5.9569062 0.5102756   0   0   0
-2.0977574 1.6230864 -0.5155659   0   0   0
-7.4556180 5.7706752 0.8248420   0   0   0
-2.5443510 1.9700470 -0.5096635   0   0   0
-7.8767165 6.1010047 1.2233245   0   0   0
-3.2387617 2.5095260 -0.5030767   0   0   0
-7.9026883 6.1233286 1.5834297   0   0   0
-7.9110234 6.1342076 1.9458701   0   0   0
-6.4293597 4.9871226 -0.4264334   0   0   0
-7.9119956 6.1393850 2.3120469   0   0   0
-7.5453894 5.8549135 -0.1667054   0   0   0
-7.8957768 6.1290080 2.6782595   0   0   0
-6.1854770 4.8152625 0.1368269   0   0   0
-1.8465506 1.4380181 -0.5403324   0   0   0
-7.5990078 5.9199274 0.5048326   0   0   0
-2.1060159 1.6412604 -0.5190005   0   0   0
-7.8628249 6.1298630 0.8722547   0   0   0
-2.5440356 1.9833317 -0.5109150   0   0   0
-7.8861830 6.1502861 1.2279555   0   0   0
-3.2335522 2.5226944 -0.5035641   0   0   0
-7.8797085 6.1496614 1.5831168   0   0   0
-7.8689733 6.1434935 1.9405275   0   0   0
-6.7244536 5.2518291 -0.4471584   0   0   0
-7.8854507 6.1607893 2.3102473   0   0   0
-7.2948732 5.7014303 -0.1616093   0   0   0
-7.8712907 6.1541522 2.6772242   0   0   0
-6.2401637 4.8946723 0.1384325   0   0   0
-1.8259364 1.4327466 -0.5358334   0   0   0
-7.3143216 5.7392847 0.4872477   0   0   0
-2.0940967 1.6437529 -0.5174740   0   0   0
-7.7567606 6.0908266 0.8628419   0   0   0
-2.5429630 1.9975237 -0.5121664   0   0   0
-7.8495404 6.1681106 1.2257619   0   0   0
-3.2336482 2.5418897 -0.5050266   0   0   0
-7.8550881 6.1746877 1.5824910   0   0   0
-7.8464034 6.1722935 1.9405275   0   0   0
-6.7287029 5.2949671 -0.4487285   0   0   0
