-0.603303 -3.360175 -14.279984
-0.589756 -3.199042 -13.959334
-0.567476 -2.220764 -13.431973
-0.564901 -2.093054 -13.371026
-0.588705 -3.059343 -13.934443
-0.584852 -2.93736 -13.843254
-0.60566 -1.671547 -13.378854
-0.60129 -1.591538 -13.282315
-0.656877 0.084387 -14.510227
-0.677551 0.172796 -14.966905
-0.601905 -1.514269 -13.295917
-0.607103 -1.434043 -13.410728
-0.604392 -2.004072 -13.350839
-0.604247 -1.916191 -13.34764
-0.61571 -1.393146 -13.600856
-0.605094 -1.281604 -13.366359
-0.60666 -1.849804 -13.400932
-0.606094 -1.77137 -13.388433
-0.623021 -0.73382 -13.762356
-0.610239 -0.652565 -13.480008
-0.60077 -1.174686 -13.270844
-0.610502 -1.133004 -13.485806
-0.619053 -0.56965 -13.674695
-0.619031 -0.505274 -13.674208
-0.612983 -1.051715 -13.540607
-0.61615 -0.970812 -13.610573
-0.628905 -0.419524 -13.892324
-0.630306 -0.352081 -13.923285
-0.61334 -0.897077 -13.548512
-0.613105 -0.810823 -13.543322
-0.634097 -0.242418 -14.00702
-0.637148 -0.171585 -14.074413
-0.643555 -0.086042 -14.215941
-0.652121 -0.010548 -14.405156
-0.615733 -2.733339 -13.60136
-0.615566 -2.590696 -13.597683
-0.608505 -2.453707 -13.441691
-0.610398 -2.339942 -13.483509
-0.645693 -3.356663 -14.263178
-0.632986 -3.204769 -13.982479
-0.607856 -2.220294 -13.427353
-0.611189 -2.113678 -13.500995
-0.631221 -3.061732 -13.943481
-0.618292 -2.898408 -13.657882
-0.646628 -1.67316 -13.389873
-0.645477 -1.601798 -13.366047
-0.701922 0.084543 -14.534869
-0.72357 0.173008 -14.983132
-0.64761 -1.527501 -13.410209
-0.648726 -1.43666 -13.433313
-0.640489 -1.99113 -13.26275
-0.644592 -1.916472 -13.347711
-0.649529 -1.377884 -13.449956
-0.647102 -1.28498 -13.399684
-0.647022 -1.849666 -13.398044
-0.6386 -1.749813 -13.22364
-0.658861 -0.727568 -13.643178
-0.664069 -0.665779 -13.75104
-0.651864 -1.194989 -13.498308
-0.647141 -1.125996 -13.400504
-0.668831 -0.577018 -13.849629
-0.668395 -0.511495 -13.840621
-0.64963 -1.044982 -13.452029
-0.646942 -0.95567 -13.396386
-0.6728 -0.420776 -13.931827
-0.67014 -0.350954 -13.876743
-0.656519 -0.900261 -13.594685
-0.657284 -0.814961 -13.610525
-0.674589 -0.241792 -13.968865
-0.686877 -0.173425 -14.223312
-0.687584 -0.086188 -14.237968
-0.685133 -0.01039 -14.187209
-0.655407 -2.727757 -13.57167
-0.652372 -2.57413 -13.508825
-0.644841 -2.437838 -13.352878
-0.649169 -2.333154 -13.442502
-0.684476 -3.336053 -14.173603
-0.676753 -3.212375 -14.013686
-0.649243 -2.223365 -13.444032
-0.642395 -2.082851 -13.302217
-0.671369 -3.053095 -13.902189
-0.661322 -2.906515 -13.694151
-0.68703 -1.673212 -13.388276
-0.68102 -1.590664 -13.271154
-0.750003 0.085024 -14.615452
-0.760684 0.171191 -14.823583
-0.677637 -1.504378 -13.205228
-0.673213 -1.403259 -13.119026
-0.673732 -1.971367 -13.129139
-0.682313 -1.909385 -13.296357
-0.686902 -1.371516 -13.385792
-0.685275 -1.280799 -13.354076
-0.678799 -1.826447 -13.227871
-0.683967 -1.763966 -13.328589
-0.696633 -0.724063 -13.575408
-0.709564 -0.669577 -13.827396
-0.685994 -1.183638 -13.368086
-0.690114 -1.130188 -13.448376
-0.703224 -0.571031 -13.703852
-0.704877 -0.507707 -13.736069
-0.699195 -1.058605 -13.625345
-0.694582 -0.965734 -13.535437
-0.713856 -0.420211 -13.911044
-0.712518 -0.351215 -13.884974
-0.684758 -0.883793 -13.344006
-0.70021 -0.817155 -13.645111
-0.723824 -0.24419 -14.105296
-0.717849 -0.170592 -13.988855
-0.733183 -0.086502 -14.287669
-0.73471 -0.010487 -14.317418
-0.693232 -2.715597 -13.509138
-0.693976 -2.57734 -13.523642
-0.756489 -3.633261 -14.741836
-0.6898 -2.454525 -13.442257
-0.684654 -2.316055 -13.341982
-0.729557 -3.346772 -14.21701
-0.715403 -3.196235 -13.941181
-0.687768 -2.216856 -13.402659
-0.687357 -2.097639 -13.394647
-0.708762 -3.033693 -13.811766
-0.699387 -2.89314 -13.629083
-0.720626 -1.657618 -13.261388
-0.714929 -1.577179 -13.156549
-0.795259 0.08515 -14.634821
-0.807123 0.17156 -14.853142
-0.720078 -1.509867 -13.2513
-0.720681 -1.418821 -13.262399
-0.718286 -1.985074 -13.218322
-0.727933 -1.923979 -13.395844
-0.724481 -1.366255 -13.332314
-0.726599 -1.282655 -13.371295
-0.720733 -1.831639 -13.263356
-0.720649 -1.755406 -13.261796
-0.730954 -0.717566 -13.451448
-0.742594 -0.66185 -13.665656
-0.724272 -1.180319 -13.328484
-0.719905 -1.113535 -13.248109
-0.742695 -0.569607 -13.667508
-0.755049 -0.513658 -13.894852
-0.728982 -1.04244 -13.415145
-0.730434 -0.959211 -13.441868
-0.750985 -0.41753 -13.820066
-0.753561 -0.350828 -13.867476
-0.725135 -0.883957 -13.344357
-0.735654 -0.810865 -13.537924
-0.757116 -0.241244 -13.932897
-0.767088 -0.172174 -14.116396
-0.769525 -0.08575 -14.161247
-0.782978 -0.010556 -14.408812
-0.742944 -2.748793 -13.672096
-0.731828 -2.567055 -13.467525
-0.785488 -3.563139 -14.455015
-0.731677 -2.459023 -13.464748
-0.726339 -2.320683 -13.366511
-0.763943 -3.309991 -14.058524
-0.753501 -3.179587 -13.866359
-0.725818 -2.209645 -13.356932
-0.718136 -2.069922 -13.215552
-0.750578 -3.034354 -13.812575
-0.741502 -2.897097 -13.645553
-0.76623 -1.669852 -13.357016
-0.764927 -1.598757 -13.334301
-0.831276 0.084327 -14.490911
-0.848862 0.170946 -14.797467
-0.756158 -1.50216 -13.181435
-0.763146 -1.423432 -13.303259
-0.751361 -1.967308 -13.097811
-0.759097 -1.900862 -13.232668
-0.767973 -1.372131 -13.387402
-0.75344 -1.26011 -13.134063
-0.758193 -1.825532 -13.21691
-0.76646 -1.768837 -13.36102
-0.784686 -0.729814 -13.678746
-0.783474 -0.661572 -13.657613
-0.763556 -1.178917 -13.310403
-0.76315 -1.118365 -13.303328
-0.776047 -0.563894 -13.528146
-0.789236 -0.508687 -13.758067
-0.767858 -1.040303 -13.385399
-0.768767 -0.956473 -13.401236
-0.797379 -0.420015 -13.9
-0.794979 -0.350652 -13.858164
-0.77099 -0.890442 -13.439993
-0.771665 -0.805839 -13.451752
-0.801365 -0.241918 -13.969495
-0.808676 -0.171966 -14.096941
-0.82162 -0.086741 -14.322584
-0.815364 -0.010415 -14.213522
-0.779047 -2.730825 -13.58044
-0.774341 -2.573375 -13.498406
-0.832716 -3.578776 -14.516007
-0.767583 -2.444067 -13.3806
-0.772626 -2.338788 -13.468518
-0.809178 -3.321657 -14.105696
-0.796453 -3.184137 -13.883862
-0.761954 -2.197698 -13.282481
-0.76375 -2.08566 -13.313787
-0.786326 -3.011742 -13.707333
-0.786342 -2.910764 -13.707613
-0.800259 -1.656907 -13.251115
-0.805267 -1.59901 -13.334044
-0.875998 0.084426 -14.505241
-0.893847 0.171014 -14.800789
-0.794058 -1.498666 -13.148438
-0.800274 -1.418131 -13.251367
-0.798761 -1.986961 -13.226308
-0.809468 -1.925759 -13.403602
-0.801938 -1.361255 -13.278926
-0.800058 -1.271247 -13.247786
-0.811281 -1.855794 -13.433618
-0.801791 -1.757959 -13.276491
-0.824242 -0.728316 -13.648248
-0.816894 -0.65534 -13.526561
-0.811606 -1.190519 -13.439013
-0.811793 -1.130233 -13.442111
-0.825707 -0.570012 -13.672491
-0.827045 -0.506432 -13.694648
-0.811513 -1.044536 -13.437469
-0.822404 -0.972103 -13.617809
-0.82689 -0.413806 -13.692089
-0.839595 -0.351835 -13.902459
-0.803111 -0.881214 -13.298334
-0.823698 -0.817215 -13.639229
-0.838397 -0.240457 -13.88263
-0.851464 -0.172022 -14.098993
-0.855274 -0.085785 -14.162082
-0.870045 -0.010558 -14.406671
-0.819871 -2.730389 -13.575863
-0.810704 -2.559656 -13.424066
-0.876554 -3.579028 -14.514448
-0.807242 -2.441972 -13.366752
-0.800298 -2.301557 -13.251766
-0.84995 -3.314764 -14.073924
-0.83725 -3.180064 -13.863641
-0.811202 -2.222884 -13.432316
-0.807999 -2.096291 -13.379275
-0.830683 -3.022729 -13.754898
-0.821151 -2.887801 -13.597059
-0.838074 -1.652675 -13.214801
-0.834999 -1.579191 -13.166316
-0.909458 0.083482 -14.340384
-0.939175 0.171141 -14.808961
-0.847305 -1.523104 -13.360355
-0.84533 -1.426728 -13.32921
-0.83599 -1.980665 -13.181932
-0.848123 -1.921756 -13.373243
-0.850071 -1.374329 -13.40396
-0.851583 -1.288762 -13.427812
-0.850052 -1.852001 -13.40366
-0.841056 -1.756343 -13.26181
-0.859874 -0.723664 -13.558545
-0.856913 -0.65475 -13.511845
-0.842361 -1.176865 -13.282396
-0.851284 -1.128844 -13.423092
-0.867693 -0.570508 -13.681827
-0.868801 -0.506699 -13.699306
-0.856276 -1.049732 -13.501799
-0.85227 -0.959491 -13.438634
-0.87163 -0.41545 -13.743906
-0.876103 -0.349673 -13.814441
-0.855229 -0.893769 -13.485291
-0.860755 -0.813365 -13.572433
-0.881055 -0.240673 -13.892516
-0.890831 -0.171415 -14.046663
-0.899982 -0.085976 -14.190958
-0.89974 -0.010399 -14.18715
-0.856908 -2.718008 -13.511777
-0.8492 -2.55368 -13.390223
-0.922583 -3.587807 -14.547338
-0.852159 -2.455244 -13.436893
-0.852467 -2.334988 -13.441741
-0.890535 -3.307864 -14.042006
-0.882831 -3.193708 -13.920525
-0.843406 -2.20121 -13.298863
-0.843057 -2.083219 -13.293365
-0.868767 -3.010956 -13.698768
-0.863878 -2.893569 -13.621673
-0.88269 -1.661643 -13.283908
-0.881732 -1.591878 -13.269491
-0.967482 0.084776 -14.559967
-0.98009 0.170489 -14.749706
-0.874831 -1.501199 -13.165627
-0.881378 -1.420043 -13.264156
-0.893209 -2.020168 -13.442208
-0.88439 -1.912969 -13.309492
-0.879708 -1.357684 -13.239026
-0.883794 -1.276795 -13.300516
-0.886959 -1.844693 -13.348156
-0.890958 -1.776096 -13.408337
-0.898543 -0.721881 -13.522486
-0.902453 -0.658245 -13.581319
-0.884687 -1.179892 -13.313955
-0.878447 -1.111987 -13.220052
-0.902539 -0.566482 -13.582623
-0.91316 -0.508395 -13.742456
-0.885947 -1.036806 -13.332922
-0.89565 -0.962557 -13.478937
-0.920325 -0.418748 -13.850285
-0.923278 -0.351774 -13.89473
-0.890442 -0.888327 -13.400563
-0.896501 -0.808689 -13.491758
-0.921538 -0.240305 -13.868548
-0.925707 -0.17004 -13.931276
-0.944783 -0.086159 -14.218364
-0.948633 -0.010466 -14.276305
-0.914447 -2.768849 -13.761822
-0.888099 -2.549427 -13.365302
-0.965599 -3.584635 -14.531627
-0.890266 -2.448602 -13.397923
-0.890107 -2.327417 -13.39553
-0.930647 -3.29994 -14.005625
-0.913284 -3.1539 -13.744318
-0.883264 -2.200596 -13.292548
-0.887513 -2.09352 -13.356481
-0.916017 -3.030605 -13.78546
-0.903074 -2.887548 -13.590672
-0.930305 -1.675252 -13.389963
-0.927172 -1.601249 -13.344871
-1.014585 0.085045 -14.603011
-1.015955 0.169056 -14.622732
-0.932209 -1.530217 -13.417362
-0.920902 -1.419313 -13.25462
-0.925304 -2.00191 -13.31799
-0.925588 -1.91517 -13.322074
-0.931199 -1.374764 -13.402831
-0.921392 -1.273328 -13.261683
-0.919231 -1.828819 -13.230578
-0.933037 -1.779235 -13.429283
-0.93623 -0.719506 -13.475242
-0.949487 -0.662488 -13.666058
-0.922221 -1.176558 -13.273615
-0.931062 -1.127426 -13.400855
-0.947864 -0.569104 -13.642688
-0.951221 -0.506595 -13.691006
-0.9282 -1.039099 -13.359674
-0.92945 -0.955521 -13.377665
-0.97087 -0.422569 -13.973822
-0.952458 -0.347138 -13.708819
-0.934126 -0.891453 -13.444958
-0.94094 -0.811929 -13.543036
-0.97281 -0.242662 -14.001741
-0.970683 -0.170562 -13.971123
-0.967542 -0.084404 -13.925925
-0.990827 -0.010457 -14.261064
-0.936878 -2.713622 -13.48457
-0.93505 -2.567685 -13.458263
-0.998921 -3.547356 -14.377558
-0.941453 -2.476981 -13.550422
-0.927586 -2.320126 -13.350833
-0.975358 -3.308343 -14.038413
-0.969658 -3.203216 -13.956371
-0.931241 -2.219409 -13.403441
-0.925421 -2.088178 -13.319672
-0.957604 -3.030657 -13.782874
-0.943337 -2.885349 -13.577536
-0.970714 -1.675303 -13.387499
-0.958337 -1.586223 -13.216811
-1.048499 0.084231 -14.460263
-1.069013 0.170485 -14.743181
-0.9685 -1.523656 -13.356973
-0.967435 -1.429005 -13.342274
-0.961877 -1.994466 -13.265624
-0.95224 -1.888352 -13.132715
-0.981095 -1.388174 -13.530669
-0.968058 -1.282166 -13.35087
-0.958741 -1.828077 -13.222378
-0.967088 -1.767453 -13.3375
-0.983832 -0.724636 -13.568415
-0.993134 -0.664116 -13.696708
-0.968748 -1.184504 -13.360394
-0.956872 -1.110479 -13.196594
-0.993931 -0.571938 -13.707702
-0.993795 -0.507252 -13.705813
-0.976941 -1.048167 -13.473377
-0.964865 -0.950666 -13.306842
-1.002859 -0.418335 -13.830832
-1.003044 -0.350367 -13.833378
-0.977382 -0.893932 -13.479461
-0.979846 -0.810328 -13.513442
-1.007237 -0.240798 -13.891204
-1.011652 -0.170366 -13.952097
-1.022943 -0.085524 -14.10782
-1.032864 -0.010448 -14.244639
-0.979695 -2.719595 -13.511356
-0.978827 -2.576084 -13.499394
-1.042375 -3.547685 -14.375812
-0.977727 -2.465407 -13.484221
-0.974107 -2.33513 -13.434293
-1.020202 -3.316498 -14.070004
-1.010547 -3.199422 -13.936856
-0.974168 -2.225134 -13.435135
-0.966453 -2.090048 -13.328743
-1.00011 -3.033513 -13.792908
-0.981222 -2.876376 -13.532415
-1.000211 -1.657284 -13.240556
-0.997893 -1.585743 -13.209863
-1.097048 0.084612 -14.52246
-1.111266 0.170147 -14.710665
-1.000167 -1.510646 -13.239974
-0.989616 -1.403401 -13.100289
-1.000258 -1.991234 -13.24117
-1.002345 -1.908346 -13.268797
-0.999266 -1.357428 -13.228038
-1.003402 -1.275913 -13.282794
-1.008418 -1.846021 -13.349188
-0.99553 -1.746785 -13.17859
-1.036153 -0.7327 -13.716342
-1.025008 -0.658062 -13.568814
-1.008215 -1.183537 -13.346509
-1.015655 -1.131635 -13.445
-1.033354 -0.57088 -13.679288
-1.025904 -0.502732 -13.580667
-0.999998 -1.030065 -13.237729
-1.016292 -0.961353 -13.45343
-1.046542 -0.419125 -13.853871
-1.042887 -0.349739 -13.805482
-1.00436 -0.881927 -13.295469
-1.025603 -0.814302 -13.576678
-1.050914 -0.241208 -13.911742
-1.068686 -0.172784 -14.147011
-1.066157 -0.085578 -14.113523
-1.069491 -0.010386 -14.15766
-1.02572 -2.733668 -13.578238
-1.017536 -2.571029 -13.469897
-1.097044 -3.58466 -14.522398
-1.01527 -2.457852 -13.439894
-1.004258 -2.311281 -13.294119
-1.056762 -3.298179 -13.989163
-1.052649 -3.199642 -13.934707
-0.998191 -2.188968 -13.213816
-1.005842 -2.088373 -13.315088
-1.032011 -3.005284 -13.661506
-1.034716 -2.912079 -13.697327
-1.044647 -1.664465 -13.294834
-1.022998 -1.563233 -13.01932
-1.134799 0.084164 -14.44217
-1.14875 0.169135 -14.619719
-1.053693 -1.530398 -13.409966
-1.03838 -1.416027 -13.215081
-1.050271 -2.010535 -13.366415
-1.039388 -1.902907 -13.227905
-1.048146 -1.369171 -13.33937
-1.049738 -1.283592 -13.359629
-1.041773 -1.833873 -13.258263
-1.046216 -1.765251 -13.314808
-1.056168 -0.718183 -13.44146
-1.063255 -0.656412 -13.531647
-1.049249 -1.184424 -13.353405
-1.044892 -1.119519 -13.297956
-1.079245 -0.573345 -13.735149
-1.069454 -0.503955 -13.610547
-1.054171 -1.044183 -13.416048
-1.051876 -0.956817 -13.38684
-1.08363 -0.417319 -13.790961
-1.08589 -0.350181 -13.819724
-1.046551 -0.883697 -13.319059
-1.068453 -0.815758 -13.597809
-1.097712 -0.242277 -13.970168
-1.093163 -0.169957 -13.912274
-1.111379 -0.085784 -14.144114
-1.1168 -0.010429 -14.213097
-1.064574 -2.728301 -13.548433
-1.054016 -2.560969 -13.414073
-1.137409 -3.573885 -14.475381
-1.05211 -2.449263 -13.389818
-1.045552 -2.313945 -13.306351
-1.097884 -3.294983 -13.972362
-1.094594 -3.199417 -13.930485
-1.028666 -2.169202 -13.091457
-1.035774 -2.067966 -13.181911
-1.078561 -3.020272 -13.726445
-1.067121 -2.887988 -13.580856
-1.084627 -1.664298 -13.290291
-1.091304 -1.60598 -13.372107
-1.172577 0.083752 -14.367966
-1.198053 0.169875 -14.680132
-1.075174 -1.503884 -13.17446
-1.082907 -1.422171 -13.269214
-1.086712 -2.00341 -13.315829
-1.072683 -1.891283 -13.143929
-1.083367 -1.362878 -13.274847
-1.083003 -1.275326 -13.270391
-1.090021 -1.847891 -13.356378
-1.081032 -1.756584 -13.246241
-1.102004 -0.721657 -13.503209
-1.116617 -0.663879 -13.682274
-1.081822 -1.176061 -13.255921
-1.085695 -1.120245 -13.303371
-1.111166 -0.568486 -13.615475
-1.11191 -0.504597 -13.624593
-1.097713 -1.047127 -13.45063
-1.096609 -0.960642 -13.437108
-1.120899 -0.415718 -13.734736
-1.134199 -0.352242 -13.897709
-1.099005 -0.893693 -13.466463
-1.106055 -0.813258 -13.552853
-1.13368 -0.240968 -13.891349
-1.142784 -0.171105 -14.002907
-1.159392 -0.086182 -14.206408
-1.155297 -0.01039 -14.156228
-1.10318 -2.722755 -13.517626
-1.095686 -2.563825 -13.425791
-1.179446 -3.569008 -14.452138
-1.098385 -2.462487 -13.458863
-1.083392 -2.309078 -13.275152
-1.139947 -3.294784 -13.968143
-1.131096 -3.183926 -13.859688
-1.087071 -2.207642 -13.320232
-1.086272 -2.088634 -13.310441
-1.120525 -3.021817 -13.730155
-1.112692 -2.900028 -13.634181
-1.12769 -1.668714 -13.322216
-1.115461 -1.583033 -13.177739
-1.227455 0.084547 -14.500809
-1.235755 0.168977 -14.598861
-1.110619 -1.498104 -13.120537
-1.116144 -1.413586 -13.185811
-1.121944 -1.994658 -13.254331
-1.126636 -1.915624 -13.309754
-1.119986 -1.358737 -13.2312
-1.122958 -1.275253 -13.266308
-1.129094 -1.845921 -13.338797
-1.12894 -1.769061 -13.336983
-1.147778 -0.724848 -13.559527
-1.163466 -0.667083 -13.744858
-1.12936 -1.18399 -13.341941
-1.127761 -1.122184 -13.323051
-1.158664 -0.571663 -13.688132
-1.155629 -0.505749 -13.652277
-1.142999 -1.051473 -13.503068
-1.139677 -0.962793 -13.463819
-1.176906 -0.420936 -13.903635
-1.163723 -0.348533 -13.747896
-1.12912 -0.885463 -13.339104
-1.136596 -0.805933 -13.427423
-1.177659 -0.241396 -13.912536
-1.195221 -0.17258 -14.120007
-1.189294 -0.085255 -14.04999
-1.210868 -0.010502 -14.304849
-1.144955 -2.725161 -13.526182
-1.132592 -2.555744 -13.380119
-1.225177 -3.575278 -14.473899
-1.140693 -2.46621 -13.475829
-1.138947 -2.340981 -13.455194
-1.196456 -3.334883 -14.134596
-1.179743 -3.202523 -13.93715
-1.129019 -2.211127 -13.337911
-1.113905 -2.065444 -13.159355
-1.158737 -3.013515 -13.688997
-1.152485 -2.896704 -13.61514
-1.171171 -1.673438 -13.35646
-1.165326 -1.59691 -13.289803
-1.261344 0.083893 -14.384823
-1.284238 0.169565 -14.645911
-1.162732 -1.514446 -13.260215
-1.158795 -1.417118 -13.215317
-1.153341 -1.979941 -13.153123
-1.160691 -1.90564 -13.236947
-1.160463 -1.359413 -13.234344
-1.17172 -1.284855 -13.362722
-1.168814 -1.845126 -13.329585
-1.160992 -1.756702 -13.240369
-1.17803 -0.718361 -13.434685
-1.185574 -0.656375 -13.520715
-1.166392 -1.180748 -13.301958
-1.155685 -1.11041 -13.179849
-1.192126 -0.56794 -13.59544
-1.192465 -0.503918 -13.599303
-1.169114 -1.0385 -13.333005
-1.193542 -0.973612 -13.611583
-1.202057 -0.415141 -13.70869
-1.210612 -0.350103 -13.806264
-1.174014 -0.888998 -13.388884
-1.184699 -0.811145 -13.510738
-1.234325 -0.244308 -14.076695
-1.237195 -0.172495 -14.109426
-1.241434 -0.085931 -14.157759
-1.242295 -0.010404 -14.167581
-1.185141 -2.723774 -13.515785
-1.175693 -2.561741 -13.408029
-1.276753 -3.597618 -14.560553
-1.163238 -2.428437 -13.265985
-1.172796 -2.327632 -13.374993
-1.224149 -3.294696 -13.960638
-1.222852 -3.205354 -13.945844
-1.166245 -2.205462 -13.300283
-1.172891 -2.100005 -13.376078
-1.196882 -3.00564 -13.649677
-1.191589 -2.891962 -13.589318
-1.201881 -1.660227 -13.24745
-1.198141 -1.587294 -13.206219
-1.305449 0.08394 -14.389
-1.333982 0.170278 -14.703491
-1.199595 -1.510517 -13.222251
-1.205353 -1.425051 -13.285721
-1.209469 -2.007269 -13.331079
-1.197802 -1.901191 -13.202488
-1.206816 -1.366714 -13.301844
-1.204578 -1.276973 -13.277175
-1.195211 -1.82407 -13.173926
-1.192487 -1.744372 -13.1439
-1.23695 -0.729214 -13.633981
-1.233366 -0.660134 -13.594486
-1.211158 -1.185305 -13.349698
-1.221179 -1.134331 -13.460155
-1.247196 -0.574422 -13.746923
-1.235788 -0.504864 -13.621182
-1.199419 -1.029999 -13.220308
-1.206698 -0.95162 -13.30054
-1.25156 -0.417868 -13.795017
-1.266961 -0.354218 -13.964768
-1.234711 -0.903877 -13.609303
-1.218604 -0.806621 -13.431776
-1.266004 -0.242248 -13.954224
-1.280121 -0.172546 -14.109825
-1.291006 -0.086391 -14.229799
-1.293848 -0.010475 -14.261132
-1.22941 -2.731582 -13.55088
-1.218091 -2.565888 -13.426122
-1.302181 -3.547285 -14.35298
-1.214941 -2.452055 -13.391399
-1.210809 -2.323185 -13.345849
-1.245472 -3.240646 -13.727919
-1.257644 -3.18696 -13.862084
-1.204629 -2.202315 -13.277736
-1.206987 -2.089207 -13.30372
-1.245665 -3.024149 -13.730041
-1.242274 -2.91474 -13.692668
-1.242829 -1.661563 -13.254418
-1.243694 -1.59464 -13.263644
-1.355971 0.084384 -14.461041
-1.383253 0.170887 -14.752005
-1.247367 -1.520143 -13.302815
-1.237586 -1.416089 -13.198498
-1.233574 -1.981416 -13.155719
-1.238166 -1.902037 -13.204689
-1.249407 -1.369431 -13.324574
-1.242139 -1.274431 -13.247059
-1.244194 -1.837741 -13.268971
-1.247733 -1.766472 -13.306717
-1.261167 -0.719573 -13.449989
-1.272369 -0.659101 -13.56945
-1.25273 -1.18655 -13.360008
-1.247435 -1.121445 -13.303537
-1.28863 -0.574413 -13.742867
-1.283411 -0.507453 -13.687217
-1.253591 -1.041889 -13.369191
-1.261335 -0.962709 -13.451778
-1.292555 -0.417673 -13.784731
-1.297315 -0.351037 -13.835495
-1.264931 -0.896211 -13.490129
-1.264094 -0.809815 -13.481204
-1.307064 -0.242059 -13.939462
-1.312886 -0.17127 -14.001561
-1.311468 -0.084938 -13.986434
-1.328992 -0.010414 -14.173326
-1.264571 -2.719318 -13.486292
-1.260754 -2.570323 -13.445583
-1.368453 -3.607895 -14.594159
-1.249833 -2.441328 -13.329107
-1.250703 -2.322533 -13.338394
-1.30861 -3.295394 -13.955956
-1.286954 -3.156322 -13.725001
-1.245031 -2.202956 -13.277902
-1.23682 -2.071978 -13.190335
-1.286289 -3.022317 -13.717904
-1.283126 -2.913741 -13.684169
-1.285947 -1.66564 -13.283131
-1.271708 -1.579753 -13.136047
-1.387606 0.083662 -14.333214
-1.427846 0.1709 -14.748866
-1.282679 -1.514472 -13.249377
-1.284039 -1.423463 -13.263419
-1.28405 -1.99823 -13.263541
-1.286035 -1.914017 -13.284042
-1.281699 -1.361053 -13.239252
-1.283954 -1.276288 -13.262544
-1.2816 -1.83401 -13.238227
-1.276371 -1.750712 -13.184214
-1.3006 -0.718951 -13.434485
-1.32304 -0.663995 -13.666278
-1.286306 -1.180391 -13.286835
-1.304781 -1.136451 -13.477674
-1.318824 -0.569555 -13.622728
-1.307274 -0.500783 -13.503428
-1.303267 -1.049426 -13.462038
-1.304866 -0.964902 -13.47855
-1.324382 -0.414623 -13.680142
-1.339561 -0.351174 -13.836931
-1.302018 -0.893744 -13.449133
-1.29576 -0.804237 -13.384496
-1.338604 -0.240176 -13.827045
-1.362462 -0.172199 -14.073489
-1.371659 -0.086068 -14.168488
-1.368417 -0.010388 -14.135003
-1.308837 -2.726813 -13.519574
-1.289626 -2.547264 -13.321136
-1.401742 -3.580511 -14.479225
-1.291446 -2.444013 -13.339931
-1.28923 -2.319483 -13.317046
-1.368273 -3.338279 -14.133512
-1.335425 -3.17315 -13.794213
-1.27534 -2.186273 -13.173564
-1.29073 -2.094918 -13.332541
-1.31496 -2.993414 -13.582813
-1.316357 -2.896067 -13.597253
-1.331405 -1.672426 -13.333288
-1.333834 -1.606875 -13.357615
-1.441537 0.084288 -14.436201
-1.478497 0.171617 -14.806334
-1.327752 -1.520333 -13.29671
-1.333781 -1.433942 -13.35709
-1.321817 -1.994864 -13.237273
-1.324948 -1.912363 -13.268627
-1.308516 -1.347555 -13.104067
-1.323818 -1.276163 -13.257316
-1.324152 -1.837662 -13.260653
-1.326075 -1.763944 -13.279917
-1.349055 -0.723209 -13.510043
-1.364878 -0.6643 -13.668507
-1.335125 -1.188179 -13.370541
-1.337786 -1.13 -13.397196
-1.351744 -0.566137 -13.536976
-1.367426 -0.508002 -13.694022
-1.331883 -1.040071 -13.338077
-1.324503 -0.949837 -13.264174
-1.367145 -0.415081 -13.691205
-1.374986 -0.349572 -13.769732
-1.346631 -0.896445 -13.485765
-1.339171 -0.806072 -13.411058
-1.390867 -0.242015 -13.928768
-1.397621 -0.171307 -13.996403
-1.427771 -0.086882 -14.298344
-1.428526 -0.010517 -14.305902
-1.356771 -2.741289 -13.587317
-1.342397 -2.5714 -13.443368
-1.448322 -3.587738 -14.504149
-1.338077 -2.455766 -13.400108
-1.319867 -2.302869 -13.21774
-1.407937 -3.331283 -14.099711
-1.395607 -3.215975 -13.976233
-1.322218 -2.198164 -13.241282
-1.33198 -2.096562 -13.339046
-1.370525 -3.02566 -13.72506
-1.367045 -2.91673 -13.690207
-1.360623 -1.659031 -13.222457
-1.356581 -1.586375 -13.183172
-1.484114 0.084234 -14.422536
-1.509996 0.170135 -14.674048
-1.369606 -1.52229 -13.309754
-1.368108 -1.427734 -13.295196
-1.357722 -1.98899 -13.194263
-1.368338 -1.9171 -13.29743
-1.378319 -1.377835 -13.394425
-1.360716 -1.273283 -13.223358
-1.368335 -1.843317 -13.297399
-1.366367 -1.764265 -13.278273
-1.398437 -0.727707 -13.589926
-1.386865 -0.655217 -13.477479
-1.382524 -1.194299 -13.43529
-1.377802 -1.129688 -13.389403
-1.41813 -0.576532 -13.781301
-1.410276 -0.508564 -13.704984
-1.383479 -1.048696 -13.444572
-1.377595 -0.958953 -13.387385
-1.415876 -0.417276 -13.759402
-1.427126 -0.352193 -13.868725
-1.377788 -0.890302 -13.389267
-1.387355 -0.810597 -13.48223
-1.447717 -0.244523 -14.068827
-1.439879 -0.171314 -13.99266
-1.448444 -0.085557 -14.075897
-1.465388 -0.010472 -14.240551
-1.386073 -2.718406 -13.469776
-1.383829 -2.573067 -13.447972
-1.498291 -3.60273 -14.560306
-1.374733 -2.449085 -13.359571
-1.370133 -2.320502 -13.314876
-1.433371 -3.292055 -13.929418
-1.425287 -3.188098 -13.85085
-1.367196 -2.206317 -13.286334
-1.373368 -2.098344 -13.346306
-1.414084 -3.030317 -13.741985
-1.401984 -2.903597 -13.6244
-1.409621 -1.669841 -13.304418
-1.391276 -1.580628 -13.131275
-1.550992 0.085523 -14.638723
-1.561589 0.170939 -14.738732
-1.411883 -1.524602 -13.325772
-1.426452 -1.446239 -13.463277
-1.394282 -1.984396 -13.159641
-1.404477 -1.91171 -13.255868
-1.415053 -1.374283 -13.355692
-1.421203 -1.292021 -13.413729
-1.403068 -1.836296 -13.242574
-1.414074 -1.773882 -13.346449
-1.429048 -0.722465 -13.487781
-1.432491 -0.657504 -13.52027
-1.407326 -1.181112 -13.28276
-1.407542 -1.121214 -13.284793
-1.461544 -0.577265 -13.794486
-1.443892 -0.505862 -13.62788
-1.429114 -1.052446 -13.488398
-1.427863 -0.965647 -13.476592
-1.471869 -0.421428 -13.891929
-1.46094 -0.350273 -13.788783
-1.413224 -0.887201 -13.338428
-1.408531 -0.79954 -13.294132
-1.456179 -0.23895 -13.743845
-1.465915 -0.169446 -13.835739
-1.502952 -0.086249 -14.185301
-1.5112 -0.010492 -14.263153
-1.430639 -2.725927 -13.50279
-1.427543 -2.578777 -13.473569
-1.42216 -2.461446 -13.422769
-1.408718 -2.317924 -13.295895
-1.49568 -3.337361 -14.116672
-1.480027 -3.216291 -13.968936
-1.414888 -2.218273 -13.354129
-1.404291 -2.084505 -13.25411
-1.458861 -3.037265 -13.769156
-1.440187 -2.897798 -13.592908
-1.453101 -1.673711 -13.330932
-1.43831 -1.588843 -13.195245
-1.565003 0.083908 -14.357538
-1.626671 0.173136 -14.923285
-1.434851 -1.506525 -13.163507
-1.452216 -1.431614 -13.322818
-1.457188 -2.016533 -13.368428
-1.442368 -1.908955 -13.232471
-1.462955 -1.381486 -13.421342
-1.466131 -1.29598 -13.450474
-1.431381 -1.821507 -13.131669
-1.442155 -1.759043 -13.230514
-1.478626 -0.726843 -13.565106
-1.503429 -0.670967 -13.792647
-1.449264 -1.182649 -13.295734
-1.435786 -1.112062 -13.172083
-1.485266 -0.5704 -13.626023
-1.488068 -0.506912 -13.651725
-1.453866 -1.041045 -13.337955
-1.458661 -0.959176 -13.381944
-1.503039 -0.418443 -13.78907
-1.501756 -0.350095 -13.777303
-1.467211 -0.895603 -13.460381
-1.479678 -0.816682 -13.574761
-1.525031 -0.243323 -13.990835
-1.531428 -0.17212 -14.049516
-1.554673 -0.086748 -14.262773
-1.563258 -0.010553 -14.341531
-1.465952 -2.715914 -13.448831
-1.471102 -2.583922 -13.496075
-1.484401 -2.498073 -13.618088
-1.459072 -2.334338 -13.38571
-1.537693 -3.336155 -14.106996
-1.524837 -3.221967 -13.989051
-1.461173 -2.227443 -13.404987
-1.441252 -2.080166 -13.222231
-1.506923 -3.050508 -13.824707
-1.472267 -2.880368 -13.506767
-1.493958 -1.674453 -13.332395
-1.469018 -1.579083 -13.10982
-1.637413 0.085427 -14.612613
-1.694506 0.175501 -15.122119
-1.477913 -1.509969 -13.1892
-1.474775 -1.414719 -13.161199
-1.47823 -1.990588 -13.19203
-1.482565 -1.909338 -13.230713
-1.484161 -1.363785 -13.244956
-1.502777 -1.292617 -13.411092
-1.483557 -1.837086 -13.239566
-1.482615 -1.759716 -13.231167
-1.520409 -0.727264 -13.568445
-1.512611 -0.656894 -13.498854
-1.493624 -1.18604 -13.329413
-1.486294 -1.120196 -13.263997
-1.52139 -0.568546 -13.577199
-1.53264 -0.508042 -13.6776
-1.493639 -1.040735 -13.329539
-1.511355 -0.967075 -13.487643
-1.547145 -0.419128 -13.807038
-1.554536 -0.352644 -13.873
-1.509727 -0.896749 -13.473117
-1.500945 -0.806121 -13.394748
-1.564265 -0.242864 -13.959825
-1.582728 -0.173097 -14.124589
-1.593491 -0.086521 -14.220641
-1.603595 -0.010534 -14.310817
-1.523877 -2.747235 -13.599394
-1.511773 -2.583884 -13.491378
-1.497333 -2.452007 -13.362507
-1.49481 -2.327142 -13.339997
-1.575968 -3.327158 -14.064265
-1.568825 -3.225684 -14.000524
-1.476639 -2.190428 -13.177835
-1.499064 -2.105367 -13.377961
-1.544944 -3.04329 -13.7874
-1.520714 -2.895066 -13.571166
-1.524095 -1.663465 -13.240376
-1.537324 -1.609202 -13.355296
-1.68682 0.085699 -14.654025
-1.495468 -1.487866 -12.991679
-1.513908 -1.414201 -13.151876
-1.526762 -2.002065 -13.263545
-1.53101 -1.920059 -13.300449
-1.530821 -1.369799 -13.2988
-1.532785 -1.283878 -13.315868
-1.521352 -1.83452 -13.216541
-1.521119 -1.758104 -13.21452
-1.578754 -0.735382 -13.715212
-1.557395 -0.658619 -13.52966
-1.520284 -1.175574 -13.207268
-1.538188 -1.128927 -13.3628
-1.573444 -0.57259 -13.669081
-1.566419 -0.505632 -13.608061
-1.528822 -1.037334 -13.281436
-1.539684 -0.959384 -13.375797
-1.576469 -0.415881 -13.695362
-1.588246 -0.35085 -13.797674
-1.544041 -0.893097 -13.413647
-1.561256 -0.816539 -13.563204
-1.609945 -0.243406 -13.986182
-1.623713 -0.172926 -14.105791
-1.631117 -0.086243 -14.170111
-1.653459 -0.010577 -14.364206
-1.552919 -2.726227 -13.490777
-1.557205 -2.591787 -13.52801
-1.531111 -2.441615 -13.301319
-1.530279 -2.319929 -13.294093
-1.624796 -3.340351 -14.115194
-1.615077 -3.233759 -14.030762
-1.534646 -2.216819 -13.332031
-1.55045 -2.120472 -13.469327
-1.586678 -3.043594 -13.784057
-1.570982 -2.912389 -13.647695
-1.55338 -1.652147 -13.145661
-1.576337 -1.607918 -13.33994
-1.730801 0.085688 -14.647115
-1.565014 -1.51731 -13.244119
-1.580232 -1.438474 -13.372901
-1.573822 -2.011091 -13.318657
-1.561191 -1.907928 -13.211766
-1.599729 -1.394917 -13.537898
-1.571509 -1.282712 -13.299087
-1.553271 -1.825196 -13.144743
-1.568769 -1.766891 -13.275894
-1.606098 -0.729022 -13.5918
-1.611786 -0.66422 -13.639931
-1.569692 -1.182794 -13.283706
-1.570326 -1.123093 -13.289075
-1.610908 -0.571258 -13.632503
-1.628374 -0.512212 -13.780314
-1.585418 -1.048275 -13.416788
-1.576669 -0.95735 -13.342751
-1.622449 -0.417084 -13.730169
-1.647615 -0.354673 -13.94314
-1.587813 -0.89497 -13.437058
-1.612726 -0.821926 -13.647889
-1.649429 -0.24301 -13.958488
-1.690658 -0.175459 -14.307394
-1.679344 -0.086526 -14.211649
-1.700019 -0.010597 -14.386613
-1.621162 -2.773378 -13.719282
-1.593267 -2.584114 -13.483215
-1.59787 -2.483028 -13.522167
-1.589751 -2.348565 -13.453458
-1.685654 -3.377001 -14.265048
-1.661775 -3.242322 -14.062969
-1.565409 -2.203532 -13.247463
-1.562211 -2.082016 -13.220397
-1.63151 -3.049699 -13.806848
-1.630716 -2.945955 -13.800132
-1.586716 -1.645609 -13.088915
-1.610314 -1.601703 -13.283583
-1.791432 0.086483 -14.777629
-1.607367 -1.519594 -13.259265
-1.619808 -1.437809 -13.361896
-1.60448 -1.99925 -13.235457
-1.615669 -1.925372 -13.327752
-1.624981 -1.381677 -13.404566
-1.627647 -1.295474 -13.426558
-1.625987 -1.863097 -13.412863
-1.616127 -1.774936 -13.33153
-1.638589 -0.725262 -13.516824
-1.643667 -0.660504 -13.558707
-1.620522 -1.190709 -13.367782
-1.621897 -1.131112 -13.37913
-1.664518 -0.575581 -13.730712
-1.657028 -0.508256 -13.668925
-1.645115 -1.060679 -13.570658
-1.621623 -0.960145 -13.376867
-1.642208 -0.411659 -13.546672
-1.675544 -0.35171 -13.821661
-1.644097 -0.903635 -13.562258
-1.630735 -0.810423 -13.452032
-1.685452 -0.242138 -13.903392
-1.713123 -0.173367 -14.13166
-1.721523 -0.086492 -14.200948
-1.75095 -0.010643 -14.44369
-1.644449 -2.743212 -13.565158
-1.624038 -2.568476 -13.396785
-1.641891 -2.487946 -13.54406
-1.610444 -2.319934 -13.284654
-1.73377 -3.386966 -14.301976
-1.694224 -3.223379 -13.975762
-1.605713 -2.204021 -13.245623
-1.625254 -2.112136 -13.406817
-1.682094 -3.066013 -13.875696
-1.659382 -2.923146 -13.688346
-1.651209 -1.670936 -13.28544
-1.649078 -1.600452 -13.268295
-1.834164 0.086397 -14.757472
-1.676365 -1.546363 -13.487845
-1.657029 -1.435152 -13.33227
-1.653066 -2.009801 -13.300384
-1.649817 -1.918351 -13.274237
-1.658693 -1.376114 -13.345658
-1.679206 -1.304075 -13.510702
-1.646255 -1.840543 -13.245582
-1.6578 -1.776518 -13.338469
-1.693364 -0.731316 -13.624613
-1.679668 -0.65859 -13.514419
-1.653427 -1.185403 -13.303288
-1.669716 -1.136201 -13.434344
-1.691636 -0.570762 -13.610709
-1.704669 -0.510179 -13.715569
-1.666364 -1.048305 -13.40737
-1.677855 -0.969329 -13.49983
-1.718232 -0.420263 -13.8247
-1.741201 -0.356622 -14.009501
-1.670139 -0.895671 -13.437748
-1.675019 -0.812229 -13.477011
-1.737304 -0.24353 -13.978148
-1.769708 -0.174746 -14.238868
-1.780976 -0.087308 -14.329529
-1.786247 -0.010594 -14.371941
-1.688843 -2.748897 -13.588239
-1.662323 -2.565222 -13.37486
-1.672749 -2.47319 -13.458748
-1.675733 -2.355401 -13.482754
-1.775237 -3.383808 -14.283352
-1.73098 -3.213384 -13.927269
-1.670174 -2.236865 -13.43803
-1.669541 -2.117035 -13.432935
-1.723883 -3.065926 -13.870163
-1.733967 -2.980404 -13.951304
-1.685246 -1.664984 -13.233097
-1.686391 -1.597897 -13.242085
-1.910824 0.087876 -15.004403
-1.690651 -1.522599 -13.275535
-1.691851 -1.430602 -13.284955
-1.697552 -2.014999 -13.329725
-1.691291 -1.919993 -13.28056
-1.709686 -1.384822 -13.425007
-1.709074 -1.295831 -13.420198
-1.700633 -1.8563 -13.353916
-1.698145 -1.776647 -13.334379
-1.737018 -0.7324 -13.639626
-1.754948 -0.671807 -13.780415
-1.698003 -1.188525 -13.333262
-1.698135 -1.128168 -13.334304
-1.743577 -0.574352 -13.691126
-1.743561 -0.509458 -13.691
-1.710357 -1.050494 -13.430275
-1.722489 -0.971544 -13.525539
-1.766941 -0.42194 -13.874588
-1.781471 -0.356227 -13.988688
-1.734153 -0.907972 -13.617124
-1.732179 -0.82005 -13.601624
-1.792702 -0.245343 -14.076873
-1.816387 -0.175107 -14.262856
-1.825045 -0.087349 -14.330843
-1.838245 -0.010644 -14.434493
-1.738231 -2.762268 -13.649152
-1.710328 -2.576784 -13.430046
-1.709512 -2.467674 -13.423636
-1.706227 -2.341456 -13.397845
-1.822695 -3.391974 -14.31239
-1.807891 -3.276663 -14.196141
-1.714686 -2.242083 -13.464268
-1.7028 -2.108063 -13.370932
-1.747324 -3.034006 -13.720552
-1.754031 -2.943476 -13.773217
-1.736322 -1.675767 -13.313622
-1.722775 -1.594614 -13.209743
-1.749483 -1.53914 -13.414535
-1.730582 -1.429504 -13.269604
-1.745959 -2.024522 -13.387515
-1.751201 -1.942021 -13.427707
-1.770754 -1.40111 -13.577635
-1.751456 -1.29725 -13.429667
-1.755193 -1.87154 -13.458315
-1.724582 -1.762573 -13.223603
-1.770785 -0.729367 -13.577873
-1.786686 -0.668137 -13.6998
-1.741771 -1.190962 -13.355402
-1.767655 -1.147191 -13.553876
-1.794129 -0.577335 -13.75687
-1.795751 -0.512571 -13.76931
-1.758568 -1.055122 -13.484195
-1.746886 -0.962514 -13.394625
-1.800036 -0.419901 -13.802166
-1.828144 -0.357105 -14.017683
-1.777865 -0.909328 -13.63216
-1.779803 -0.823107 -13.647022
-1.837171 -0.245613 -14.086899
-1.866192 -0.175747 -14.309431
-1.882735 -0.088026 -14.436272
-1.868782 -0.010571 -14.329288
-1.773835 -2.753646 -13.601259
-1.764035 -2.596226 -13.526116
-1.774503 -2.502241 -13.60638
-1.751121 -2.347481 -13.427099
-1.868888 -3.397491 -14.330097
-1.857961 -3.289523 -14.246317
-1.750947 -2.23654 -13.42576
-1.738793 -2.102831 -13.332567
-1.824759 -3.095174 -13.991731
-1.796234 -2.944576 -13.773006
-1.792968 -1.691332 -13.431937
-1.780737 -1.611016 -13.340306
-1.782034 -1.532348 -13.350024
-1.772278 -1.430863 -13.276936
-1.765371 -2.000771 -13.225195
-1.796442 -1.947171 -13.457956
-1.782104 -1.378225 -13.350549
-1.776232 -1.285869 -13.306553
-1.771577 -1.846321 -13.271683
-1.78503 -1.783125 -13.372471
-1.817153 -0.731552 -13.613112
-1.823986 -0.666671 -13.664304
-1.8243 -1.219203 -13.666656
-1.801397 -1.142669 -13.495082
-1.813753 -0.57046 -13.587646
-1.857206 -0.518133 -13.913171
-1.787855 -1.048452 -13.393628
-1.792062 -0.965092 -13.425148
-1.858836 -0.423818 -13.925383
-1.880852 -0.359098 -14.090316
-1.784722 -0.892206 -13.37016
-1.804875 -0.815839 -13.521136
-1.879291 -0.245567 -14.078619
-1.888695 -0.173847 -14.149071
-1.936213 -0.08848 -14.50505
-1.955876 -0.010814 -14.652353
-1.812272 -2.749736 -13.576545
-1.806273 -2.598315 -13.531611
-1.782461 -2.456661 -13.353218
-1.800756 -2.359465 -13.490277
-1.92935 -3.428144 -14.453635
-1.875134 -3.2449 -14.047471
-1.795747 -2.241929 -13.452753
-1.781366 -2.105633 -13.345019
-1.863348 -3.089202 -13.959179
-1.853183 -2.96928 -13.88303
-1.837994 -1.695508 -13.459617
-1.829668 -1.618719 -13.398643
-1.825028 -1.534653 -13.364666
-1.830823 -1.44548 -13.407101
-1.827418 -2.025344 -13.382172
-1.818205 -1.927229 -13.3147
-1.843883 -1.394504 -13.502745
-1.820322 -1.288679 -13.330207
-1.813215 -1.847975 -13.278159
-1.81006 -1.768188 -13.255056
-1.8843 -0.741828 -13.798717
-1.85475 -0.662941 -13.582322
-1.821417 -1.190388 -13.338223
-1.829601 -1.134924 -13.398153
-1.875494 -0.576849 -13.734225
-1.883543 -0.513873 -13.79317
-1.823529 -1.045752 -13.353692
-1.846231 -0.972301 -13.519938
-1.898665 -0.423337 -13.903907
-1.909417 -0.356499 -13.982642
-1.837339 -0.898221 -13.454819
-1.849068 -0.817353 -13.540711
-1.928512 -0.246432 -14.122478
-1.963492 -0.17674 -14.378633
-1.957018 -0.087456 -14.331229
-2.017297 -0.010907 -14.772648
-1.885849 -2.79817 -13.81006
-1.841613 -2.590633 -13.486117
-1.855348 -2.500634 -13.586698
-1.839785 -2.357356 -13.47273
-1.94211 -3.286566 -14.222054
-1.828807 -2.232769 -13.392341
-1.830881 -2.116358 -13.407529
-1.921876 -3.115855 -14.073881
-1.88132 -2.947778 -13.776889
-1.871406 -1.689033 -13.402631
-1.872749 -1.621038 -13.41225
-1.84516 -1.51806 -13.214664
-1.885122 -1.456195 -13.500866
-1.855743 -2.012302 -13.290461
-1.868508 -1.937759 -13.381876
-1.869556 -1.383373 -13.389387
-1.866641 -1.292921 -13.36851
-1.847608 -1.842345 -13.2322
-1.870133 -1.787402 -13.393514
-1.904878 -0.733727 -13.642355
-1.905993 -0.666539 -13.650339
-1.87787 -1.200768 -13.448927
-1.882053 -1.142238 -13.478888
-1.932626 -0.581579 -13.84108
-1.944319 -0.518994 -13.924823
-1.875284 -1.052198 -13.430406
-1.896112 -0.976997 -13.579572
-1.928527 -0.420705 -13.811721
-1.968011 -0.3595 -14.094498
-1.879575 -0.899017 -13.461136
-1.919222 -0.830035 -13.745086
-1.962542 -0.245362 -14.055328
-2.006436 -0.176703 -14.369691
-2.042536 -0.089305 -14.628234
-2.057536 -0.010884 -14.735658
-1.932585 -2.805564 -13.840784
-1.883467 -2.592269 -13.489011
-1.915113 -2.52542 -13.715656
-1.880657 -2.357665 -13.468886
-1.990067 -3.294965 -14.252465
-1.887345 -2.254456 -13.516788
-1.87545 -2.12104 -13.431599
-1.958371 -3.106429 -14.025462
-1.938581 -2.971876 -13.883729
-1.908216 -1.685849 -13.371676
-1.911676 -1.619755 -13.395924
-1.91508 -1.542279 -13.419774
-1.924441 -1.455144 -13.485373
-1.903541 -2.020499 -13.338917
-1.914915 -1.943907 -13.41862
-1.932754 -1.399905 -13.543624
-1.909877 -1.294904 -13.383313
-1.903074 -1.857539 -13.335643
-1.892175 -1.770241 -13.259272
-1.94086 -0.731784 -13.600427
-1.961351 -0.671399 -13.744017
-1.929868 -1.207932 -13.523403
-1.916426 -1.138513 -13.429207
-1.979111 -0.582978 -13.868467
-1.991491 -0.520349 -13.95522
-1.930366 -1.060208 -13.526889
-1.944671 -0.980836 -13.627135
-2.009413 -0.429084 -14.080804
-2.004502 -0.358426 -14.046389
-1.96021 -0.917766 -13.736019
-1.930189 -0.817131 -13.525646
-2.017502 -0.246902 -14.137486
-2.052394 -0.17693 -14.381992
-2.071905 -0.088674 -14.518713
-2.123364 -0.010995 -14.879311
-1.932298 -2.745849 -13.540426
-1.922574 -2.590158 -13.472292
-1.924872 -2.484632 -13.488394
-1.928439 -2.366462 -13.513386
-2.038919 -3.304487 -14.287568
-1.914253 -2.238262 -13.413984
-1.912233 -2.116924 -13.399827
-1.999768 -3.105039 -14.013219
-2.009361 -3.015266 -14.08044
-1.945201 -1.682966 -13.343004
-1.944748 -1.613682 -13.339896
-1.958476 -1.544593 -13.434062
-1.976266 -1.463412 -13.556095
-1.96079 -2.038202 -13.449941
-1.960294 -1.948798 -13.446535
-1.930457 -1.36931 -13.241866
-1.968692 -1.307163 -13.504138
-1.966953 -1.880165 -13.492212
-1.948341 -1.785072 -13.364544
-2.022525 -0.746796 -13.873406
-2.006422 -0.672616 -13.762944
-1.953857 -1.197643 -13.402382
-1.972162 -1.147383 -13.527946
-2.002604 -0.577693 -13.736762
-2.02095 -0.51712 -13.862598
-1.958019 -1.053145 -13.430928
-1.971627 -0.973856 -13.524274
-2.050585 -0.428816 -14.065881
-2.051358 -0.359215 -14.07118
-1.968486 -0.902571 -13.502728
-1.98587 -0.823309 -13.62197
-2.069756 -0.248056 -14.197383
-2.115141 -0.178566 -14.508698
-2.13162 -0.089342 -14.621736
-1.991728 -2.77174 -13.662155
-1.998297 -2.63647 -13.707212
-1.989234 -2.514583 -13.645047
-1.95778 -2.352758 -13.429293
-2.125415 -3.373399 -14.579176
-1.961337 -2.245864 -13.453688
-1.956295 -2.120892 -13.419106
-2.052125 -3.120405 -14.076444
-2.025885 -2.97716 -13.89645
-2.00237 -1.697322 -13.450839
-2.00383 -1.629012 -13.460647
-1.999153 -1.544724 -13.429234
-2.001254 -1.451885 -13.443341
-1.991949 -2.028631 -13.380836
-2.004216 -1.952087 -13.463242
-2.011749 -1.398055 -13.513841
-1.988815 -1.293764 -13.359785
-1.998862 -1.871948 -13.427275
-1.99193 -1.788026 -13.380712
-2.048288 -0.740983 -13.75929
-2.039475 -0.669842 -13.700093
-2.0127 -1.208711 -13.52023
-2.00258 -1.14147 -13.45225
-2.050369 -0.579485 -13.773273
-2.079082 -0.521214 -13.966148
-2.019325 -1.064109 -13.564734
-2.038158 -0.986318 -13.691246
-2.077097 -0.425558 -13.95282
-2.114864 -0.362831 -14.206518
-2.022818 -0.908688 -13.5882
-2.040864 -0.828962 -13.70942
-2.098903 -0.246451 -14.099299
-2.131796 -0.176325 -14.320253
-2.189469 -0.089907 -14.707672
-2.030479 -2.768407 -13.639664
-2.025313 -2.617966 -13.604959
-2.021219 -2.503239 -13.577457
-2.02448 -2.383613 -13.599365
-2.019721 -2.265851 -13.567391
-1.999015 -2.12329 -13.428304
-2.103687 -3.133987 -14.131434
-2.075627 -2.988448 -13.942939
-2.041991 -1.696543 -13.438568
-2.07175 -1.650791 -13.634419
-2.036975 -1.5427 -13.405558
-2.031601 -1.44464 -13.370193
-2.061355 -2.057638 -13.566009
-2.046022 -1.953242 -13.465099
-2.076447 -1.414368 -13.665327
-2.058788 -1.312694 -13.54911
-2.062452 -1.893154 -13.573225
-2.043612 -1.797999 -13.449243
-2.104535 -0.746216 -13.850181
-2.106762 -0.678204 -13.864838
-2.076243 -1.222117 -13.663985
-2.050934 -1.145823 -13.497424
-2.114363 -0.585708 -13.914857
-2.110042 -0.518474 -13.886423
-2.075842 -1.072175 -13.661351
-2.090312 -0.991474 -13.756578
-2.14804 -0.431356 -14.136494
-2.155791 -0.36251 -14.187502
-2.058184 -0.906219 -13.545135
-2.08107 -0.828512 -13.695754
-2.192737 -0.252358 -14.430648
-2.228574 -0.18067 -14.666493
-2.308369 -0.092908 -15.191633
-2.094111 -2.79848 -13.781577
-2.079946 -2.635209 -13.688358
-2.059098 -2.499523 -13.551153
-2.051687 -2.367688 -13.502379
-2.048798 -2.252841 -13.483369
-2.027745 -2.111045 -13.344813
-2.162424 -3.157534 -14.231153
-2.13054 -3.006611 -14.021321
-2.09516 -1.706847 -13.513932
-2.087296 -1.630816 -13.463206
-2.08584 -1.548971 -13.453816
-2.075325 -1.447017 -13.385994
-2.089707 -2.045351 -13.478759
-2.083214 -1.950051 -13.436879
-2.094866 -1.39915 -13.512037
-2.098124 -1.311745 -13.533045
-2.096034 -1.886543 -13.519567
-2.080821 -1.795113 -13.421441
-2.141731 -0.744628 -13.814318
-2.151853 -0.679241 -13.879601
-2.086153 -1.204057 -13.455834
-2.113549 -1.157829 -13.632542
-2.154006 -0.585079 -13.893492
-2.18572 -0.526619 -14.09805
-2.113252 -1.070259 -13.630627
-2.112594 -0.982545 -13.626377
-2.200831 -0.433357 -14.195512
-2.20847 -0.364142 -14.24479
-2.115213 -0.913208 -13.643272
-2.11332 -0.82498 -13.631065
-2.261239 -0.255178 -14.585152
-2.280627 -0.181293 -14.710207
-2.142854 -2.807899 -13.821561
-2.135276 -2.65267 -13.772681
-2.105189 -2.505748 -13.578614
-2.104598 -2.38149 -13.574804
-2.092307 -2.255916 -13.495524
-2.093043 -2.136627 -13.500276
-2.200797 -3.151037 -14.195296
-2.192322 -3.0336 -14.140635
-2.142015 -1.711729 -13.546188
-2.123106 -1.627151 -13.42661
-2.129961 -1.551562 -13.469957
-2.145087 -1.467127 -13.565619
-2.119645 -2.035077 -13.40472
-2.149687 -1.973888 -13.594707
-2.128282 -1.394352 -13.459338
-2.142546 -1.313965 -13.549551
-2.150608 -1.898737 -13.600533
-2.119262 -1.7934 -13.402301
-2.184635 -0.745055 -13.815718
-2.189191 -0.677844 -13.844529
-2.142388 -1.212926 -13.54855
-2.154742 -1.157877 -13.626671
-2.191138 -0.583812 -13.856845
-2.206736 -0.52154 -13.955484
-2.154598 -1.070382 -13.625761
-2.174132 -0.991877 -13.749301
-2.241287 -0.432904 -14.173985
-2.248519 -0.363673 -14.219724
-2.168217 -0.918234 -13.711889
-2.178723 -0.834287 -13.778332
-2.295796 -0.254135 -14.518703
-2.349638 -0.183216 -14.859206
-2.17989 -2.801938 -13.785707
-2.165097 -2.638407 -13.692157
-2.16293 -2.525365 -13.678458
-2.151745 -2.388392 -13.607718
-2.157627 -2.281966 -13.64492
-2.144753 -2.147648 -13.563507
-2.276006 -3.196555 -14.393553
-2.201083 -2.987621 -13.919736
-2.169157 -1.700983 -13.454668
-2.180879 -1.640152 -13.527374
-2.183028 -1.560463 -13.54071
-2.167179 -1.4545 -13.442397
-2.179639 -2.053519 -13.519684
-2.190771 -1.973971 -13.588736
-2.174125 -1.397733 -13.485482
-2.161095 -1.30054 -13.40466
-2.183944 -1.892089 -13.546389
-2.177772 -1.808428 -13.508103
-2.213594 -0.740805 -13.730297
-2.241918 -0.681181 -13.905984
-2.200701 -1.222626 -13.650327
-2.203215 -1.161772 -13.665921
-2.258568 -0.590518 -14.009256
-2.262807 -0.524785 -14.035556
-2.219159 -1.081827 -13.764819
-2.214 -0.991165 -13.73282
-2.293206 -0.434644 -14.224112
-2.323013 -0.368691 -14.408995
-2.222174 -0.923476 -13.783521
-2.231698 -0.838582 -13.84259
-2.352096 -0.255496 -14.58939
-2.255391 -2.844739 -13.989555
-2.20915 -2.641716 -13.70273
-2.209377 -2.531325 -13.704141
-2.212117 -2.409459 -13.721138
-2.174253 -2.256521 -13.486276
-2.205807 -2.167453 -13.681995
-2.283918 -3.042049 -14.166498
-2.225484 -1.713113 -13.543966
-2.223012 -1.641145 -13.528917
-2.215869 -1.554857 -13.485446
-2.227193 -1.467336 -13.554365
-2.220634 -2.053732 -13.51445
-2.219634 -1.963259 -13.50836
-2.234076 -1.409907 -13.596258
-2.226709 -1.315424 -13.551416
-2.24275 -1.907363 -13.64904
-2.218838 -1.808702 -13.503517
-2.282246 -0.749758 -13.889409
-2.309007 -0.688685 -14.052276
-2.210159 -1.205337 -13.450698
-2.252069 -1.16573 -13.705752
-2.309239 -0.592681 -14.053683
-2.33938 -0.532583 -14.237119
-2.248219 -1.075872 -13.682327
-2.254622 -0.990819 -13.721292
-2.336093 -0.434644 -14.217112
-2.373681 -0.369816 -14.445869
-2.250513 -0.918082 -13.696283
-2.266158 -0.835897 -13.791499
-2.415305 -0.257545 -14.699184
-2.309689 -2.85974 -14.05642
-2.263785 -2.657349 -13.777056
-2.260532 -2.542385 -13.757264
-2.235278 -2.389987 -13.60357
-2.224847 -2.266638 -13.54009
-2.236985 -2.157734 -13.613956
-2.347962 -3.069935 -14.289348
-2.276568 -1.72086 -13.598408
-2.276304 -1.650209 -13.596833
-2.269323 -1.563674 -13.555136
-2.277964 -1.473743 -13.606747
-2.284405 -2.074642 -13.645223
-2.264195 -1.966588 -13.524502
-2.266347 -1.404502 -13.537361
-2.283243 -1.324519 -13.638281
-2.274079 -1.89916 -13.583542
-2.26307 -1.811519 -13.517785
-2.329396 -0.751459 -13.913965
-2.342769 -0.686165 -13.993845
-2.288173 -1.225398 -13.667726
-2.321238 -1.179884 -13.865231
-2.348248 -0.591833 -14.026565
-2.397515 -0.535983 -14.320852
-2.307304 -1.084251 -13.782001
-2.313517 -0.998382 -13.819112
-2.407567 -0.439871 -14.380895
-2.424097 -0.370866 -14.479627
-2.28688 -0.916108 -13.660004
-2.297493 -0.832186 -13.723401
-2.370612 -2.882285 -14.160153
-2.328555 -2.684129 -13.908937
-2.33493 -2.578742 -13.947018
-2.29962 -2.414479 -13.736105
-2.270208 -2.271177 -13.560418
-2.260599 -2.141222 -13.503024
-2.399202 -3.080409 -14.330928
-2.318717 -1.721712 -13.598208
-2.318223 -1.650865 -13.595306
-2.314745 -1.566754 -13.574911
-2.321474 -1.475321 -13.614373
-2.319242 -2.069016 -13.601288
-2.326684 -1.985111 -13.644931
-2.316606 -1.410249 -13.585827
-2.323932 -1.324271 -13.628788
-2.326735 -1.908757 -13.645226
-2.316764 -1.821689 -13.586754
-2.37768 -0.753465 -13.943996
-2.377467 -0.684008 -13.942746
-2.345522 -1.233888 -13.755404
-2.332306 -1.164536 -13.677898
-2.420962 -0.599365 -14.197827
-2.438905 -0.53559 -14.30305
-2.33648 -1.078537 -13.702378
-2.371475 -1.005288 -13.907604
-2.464565 -0.442318 -14.453539
-2.470001 -0.371203 -14.485415
-2.360412 -0.928836 -13.84273
-2.359428 -0.839499 -13.836958
-2.411781 -2.880461 -14.143982
-2.348979 -2.659768 -13.775678
-2.353283 -2.553029 -13.800918
-2.364163 -2.43833 -13.864727
-2.362571 -2.321763 -13.85539
-2.346023 -2.182821 -13.758343
-2.360748 -1.722463 -13.59708
-2.356922 -1.64926 -13.575045
-2.381334 -1.583819 -13.715647
-2.367409 -1.478372 -13.635445
-2.379799 -2.086151 -13.706809
-2.392542 -2.005832 -13.780201
-2.369294 -1.417261 -13.646301
-2.382343 -1.333968 -13.721459
-2.33303 -1.880666 -13.437433
-2.37982 -1.838756 -13.706926
-2.436943 -0.758827 -14.035934
-2.428908 -0.686665 -13.989657
-2.394369 -1.237698 -13.790726
-2.380835 -1.168111 -13.712773
-2.46768 -0.600316 -14.212969
-2.523865 -0.544617 -14.536576
-2.410519 -1.093379 -13.883742
-2.396099 -0.998077 -13.800691
-2.535743 -0.447185 -14.604988
-2.582361 -0.381346 -14.873494
-2.425675 -0.937932 -13.971039
-2.411623 -0.843161 -13.890104
-2.500479 -2.934506 -14.401883
-2.435527 -2.709849 -14.027779
-2.399932 -2.558398 -13.822766
