-0.261975 -2.675796 -9.649163
-0.263369 -2.602753 -9.700508
-0.259389 -3.22573 -9.553942
-0.258039 -3.117589 -9.504198
-0.264524 -2.514556 -9.743077
-0.260337 -2.361022 -9.58884
-0.256155 -2.992578 -9.434824
-0.260657 -2.935231 -9.600642
-0.284997 -1.914941 -10.497144
-0.280314 -1.790578 -10.324658
-0.267717 -2.319067 -9.860669
-0.267571 -2.257342 -9.85529
-0.287642 -1.750726 -10.594556
-0.298238 -1.718624 -10.984809
-0.271669 -2.195745 -10.006233
-0.268533 -2.097586 -9.890721
-0.295718 -4.085635 -9.802214
-0.295077 -3.996773 -9.78098
-0.308424 -2.053329 -10.22338
-0.308414 -1.946639 -10.223058
-0.290409 -3.841013 -9.626236
-0.286694 -3.68693 -9.503091
-0.287474 -3.595634 -9.528969
-0.288524 -3.485544 -9.563764
-0.303469 -4.427244 -10.059145
-0.298431 -4.214158 -9.892155
-0.292485 -2.857287 -9.695059
-0.288662 -2.747535 -9.568323
-0.290038 -3.391765 -9.613952
-0.291958 -3.352858 -9.677575
-0.293944 -2.702163 -9.743402
-0.293077 -2.606779 -9.714674
-0.287185 -3.214332 -9.519361
-0.290902 -3.16326 -9.642597
-0.292709 -2.504295 -9.70248
-0.298277 -2.43466 -9.887051
-0.285 -2.996683 -9.446949
-0.288307 -2.922007 -9.556562
-0.315825 -1.909918 -10.468709
-0.315177 -1.811994 -10.447243
-0.295216 -2.301605 -9.785574
-0.298361 -2.265453 -9.889845
-0.322734 -1.76793 -10.69774
-0.330883 -1.716116 -10.967833
-0.30101 -2.189663 -9.977652
-0.295121 -2.074801 -9.782439
-0.326137 -4.096403 -9.827111
-0.322617 -3.972654 -9.721029
-0.336381 -2.035928 -10.135768
-0.340846 -1.955825 -10.270316
-0.32233 -3.875765 -9.712401
-0.316789 -3.70371 -9.54543
-0.318232 -3.618604 -9.588924
-0.317632 -3.488457 -9.570844
-0.334882 -4.44151 -10.090595
-0.329929 -4.235532 -9.941378
-0.323484 -2.872922 -9.747179
-0.318462 -2.755701 -9.595845
-0.313695 -3.335023 -9.452213
-0.319275 -3.333344 -9.620334
-0.318818 -2.664465 -9.606557
-0.322354 -2.606613 -9.713126
-0.31773 -3.233017 -9.573784
-0.316189 -3.12575 -9.527345
-0.323328 -2.514853 -9.742453
-0.323035 -2.397109 -9.733626
-0.31818 -3.04151 -9.587351
-0.320336 -2.951566 -9.652315
-0.341131 -1.875468 -10.278895
-0.353831 -1.849347 -10.661587
-0.327917 -2.324208 -9.880733
-0.329319 -2.273261 -9.922983
-0.355426 -1.770064 -10.709631
-0.366915 -1.730048 -11.055815
-0.328228 -2.17066 -9.890115
-0.333445 -2.131183 -10.047315
-0.354494 -4.081687 -9.790783
-0.351667 -3.969667 -9.712703
-0.372188 -2.06501 -10.27948
-0.374081 -1.967735 -10.331779
-0.351793 -3.877677 -9.716177
-0.352435 -3.77724 -9.733918
-0.350704 -3.655661 -9.686108
-0.349048 -3.514167 -9.64037
-0.370365 -4.502957 -10.229125
-0.358892 -4.223567 -9.912255
-0.351457 -2.861354 -9.706916
-0.350222 -2.778095 -9.672814
-0.348753 -3.39889 -9.63222
-0.347905 -3.329697 -9.608802
-0.353623 -2.709173 -9.766725
-0.357345 -2.648867 -9.869545
-0.348175 -3.247707 -9.616276
-0.345759 -3.133358 -9.549534
-0.357969 -2.552371 -9.886763
-0.356077 -2.422204 -9.8345
-0.348026 -3.049698 -9.612154
-0.348354 -2.942361 -9.621203
-0.377036 -1.900204 -10.413379
-0.386789 -1.853209 -10.682735
-0.354971 -2.306392 -9.803967
-0.365629 -2.313671 -10.098317
-0.394035 -1.798884 -10.882864
-0.404791 -1.749655 -11.179945
-0.360873 -2.187759 -9.966981
-0.365422 -2.141013 -10.092601
-0.387285 -4.116383 -9.872885
-0.384787 -4.009566 -9.809209
-0.402032 -2.059085 -10.248816
-0.40553 -1.969142 -10.337988
-0.381905 -3.885919 -9.735722
-0.388292 -3.841559 -9.898542
-0.373518 -3.594102 -9.521919
-0.384103 -3.569759 -9.791762
-0.392071 -4.259254 -9.994871
-0.376934 -2.832814 -9.609
-0.381197 -2.791298 -9.717679
-0.37601 -3.382773 -9.585453
-0.382121 -3.375972 -9.741232
-0.384364 -2.718272 -9.798411
-0.381316 -2.609218 -9.720711
-0.374462 -3.224332 -9.545979
-0.378278 -3.164471 -9.643259
-0.38415 -2.528444 -9.792966
-0.385858 -2.422972 -9.836499
-0.379751 -3.071832 -9.680814
-0.383147 -2.987406 -9.767386
-0.411298 -1.913498 -10.485036
-0.420256 -1.858739 -10.713392
-0.394401 -2.365547 -10.054278
-0.389932 -2.277739 -9.94036
-0.42067 -1.772816 -10.723939
-0.391732 -2.192237 -9.986245
-0.40125 -2.170171 -10.228888
-0.415004 -4.096087 -9.823002
-0.415122 -4.01684 -9.825799
-0.436127 -2.074242 -10.322989
-0.446635 -2.013907 -10.571708
-0.41237 -3.896352 -9.760659
-0.407899 -3.747433 -9.654821
-0.41131 -3.675193 -9.735557
-0.403454 -3.481914 -9.549631
-0.424289 -4.280195 -10.04278
-0.410002 -2.861351 -9.704608
-0.408673 -2.77885 -9.673154
-0.409086 -3.41759 -9.68292
-0.407027 -3.339287 -9.634197
-0.412154 -2.706713 -9.755547
-0.416036 -2.643555 -9.847425
-0.408503 -3.266327 -9.669121
-0.405531 -3.150261 -9.598779
-0.415681 -2.540648 -9.839026
-0.418308 -2.439209 -9.901197
-0.409845 -3.078579 -9.700886
-0.412344 -2.985524 -9.760033
-0.44751 -1.933329 -10.5924
-0.456114 -1.87331 -10.796053
-0.413808 -2.304759 -9.794706
-0.424266 -2.301363 -10.042225
-0.464252 -1.816807 -10.988692
-0.434112 -2.255968 -10.275294
-0.426947 -2.144296 -10.105686
-0.449057 -4.136889 -9.91954
-0.445266 -4.021461 -9.835802
-0.468795 -2.081056 -10.355536
-0.4761 -2.003733 -10.516912
-0.445715 -3.930827 -9.845723
-0.436784 -3.745451 -9.648442
-0.440023 -3.669796 -9.719979
-0.441275 -3.554581 -9.747644
-0.454514 -4.279607 -10.040075
-0.437709 -2.851186 -9.668855
-0.440147 -2.793459 -9.722722
-0.433644 -3.381382 -9.579069
-0.438323 -3.356446 -9.682424
-0.447119 -2.740695 -9.876723
-0.443325 -2.629273 -9.792931
-0.432173 -3.225353 -9.54657
-0.441087 -3.198174 -9.743482
-0.446653 -2.548059 -9.866424
-0.448914 -2.443269 -9.916368
-0.441615 -3.096207 -9.755144
-0.43307 -2.926674 -9.566383
-0.486152 -1.960336 -10.738947
-0.491768 -1.885177 -10.863006
-0.449367 -2.336054 -9.926392
-0.451716 -2.287011 -9.978283
-0.49729 -1.816435 -10.984994
-0.458135 -2.222182 -10.120073
-0.462882 -2.169884 -10.224929
-0.481758 -4.160972 -9.97588
-0.479542 -4.060539 -9.929979
-0.50939 -2.120046 -10.548065
-0.514871 -2.031577 -10.66155
-0.47107 -3.894979 -9.754559
-0.477178 -3.836287 -9.881046
-0.474632 -3.711224 -9.82832
-0.474224 -3.581424 -9.81987
-0.491838 -4.34183 -10.184613
-0.476074 -2.907426 -9.858186
-0.473151 -2.815385 -9.797655
-0.467025 -3.414243 -9.670796
-0.465686 -3.343272 -9.643059
-0.475152 -2.730636 -9.839083
-0.47128 -2.620506 -9.758898
-0.467216 -3.269119 -9.674744
-0.469728 -3.193137 -9.726764
-0.478538 -2.559469 -9.909207
-0.481188 -2.455369 -9.964074
-0.466138 -3.064038 -9.652429
-0.465993 -2.952493 -9.649416
-0.516537 -1.95278 -10.696047
-0.519982 -1.868846 -10.767383
-0.47909 -2.335029 -9.920638
-0.483444 -2.294787 -10.010796
-0.48373 -2.199795 -10.016708
-0.499116 -2.19362 -10.335318
-0.518124 -4.212031 -10.096776
-0.512038 -4.080857 -9.978168
-0.537471 -2.105434 -10.473794
-0.538925 -2.001498 -10.502122
-0.504365 -3.925151 -9.828643
-0.511365 -3.869491 -9.965071
-0.503771 -3.707536 -9.817078
-0.503151 -3.576534 -9.804991
-0.494911 -2.844806 -9.644412
-0.504057 -2.822989 -9.822641
-0.502109 -3.454967 -9.784679
-0.501277 -3.387263 -9.768476
-0.500666 -2.708142 -9.756566
-0.502898 -2.631955 -9.800064
-0.497815 -3.278487 -9.701012
-0.502423 -3.214644 -9.790807
-0.511549 -2.57521 -9.968649
-0.513642 -2.466918 -10.009437
-0.503653 -3.116039 -9.814771
-0.494943 -2.951601 -9.645052
-0.5542 -1.972016 -10.799787
-0.566694 -1.917018 -11.043269
-0.518608 -2.379063 -10.106205
-0.520615 -2.325973 -10.145318
-0.524876 -2.246613 -10.228357
-0.531891 -2.200261 -10.36505
-0.552204 -4.239906 -10.161976
-0.549307 -4.134887 -10.108667
-0.572259 -2.117282 -10.531053
-0.577348 -2.025181 -10.624698
-0.537657 -3.951992 -9.894276
-0.53425 -3.818263 -9.831577
-0.5286 -3.674333 -9.72761
-0.529805 -3.556963 -9.749784
-0.532229 -2.889503 -9.794381
-0.531179 -2.809765 -9.775071
-0.53288 -3.463175 -9.806362
-0.531924 -3.394841 -9.788771
-0.537641 -2.746723 -9.893984
-0.534518 -2.642164 -9.836508
-0.531893 -3.30848 -9.7882
-0.534107 -3.227679 -9.828941
-0.536072 -2.548869 -9.865113
-0.55072 -2.498183 -10.134679
-0.527508 -3.082479 -9.707518
-0.53126 -2.992324 -9.776565
-0.588605 -1.978186 -10.831852
-0.608708 -1.944846 -11.201792
-0.549023 -2.378792 -10.103441
-0.550816 -2.324307 -10.136435
-0.558253 -2.256845 -10.273302
-0.567263 -2.216335 -10.439107
-0.592465 -4.309869 -10.327922
-0.579127 -4.13016 -10.09541
-0.604975 -2.120645 -10.546003
-0.607065 -2.017466 -10.582437
-0.571611 -3.980667 -9.96439
-0.564661 -3.823436 -9.843239
-0.569123 -3.748022 -9.921026
-0.561653 -3.572529 -9.790801
-0.571834 -2.941303 -9.968284
-0.55701 -2.791493 -9.709867
-0.557322 -3.431595 -9.715301
-0.565637 -3.420209 -9.860257
-0.575721 -2.78663 -10.036043
-0.570938 -2.673814 -9.952661
-0.560764 -3.30468 -9.775312
-0.566711 -3.244659 -9.878983
-0.569863 -2.56708 -9.933922
-0.578437 -2.485957 -10.083382
-0.558222 -3.090451 -9.730986
-0.561998 -2.999028 -9.79682
-0.626105 -1.993587 -10.914341
-0.582316 -2.390392 -10.151
-0.584174 -2.335469 -10.183399
-0.593607 -2.273598 -10.347821
-0.59452 -2.200704 -10.363739
-0.619064 -4.194476 -10.250798
-0.638999 -2.128036 -10.580881
-0.650437 -2.053643 -10.770289
-0.611764 -4.04751 -10.129912
-0.607331 -3.906975 -10.056519
-0.605635 -3.78927 -10.02843
-0.600011 -3.625897 -9.935294
-0.601064 -2.937237 -9.952737
-0.60014 -2.857423 -9.937431
-0.596459 -3.489149 -9.876491
-0.592906 -3.406038 -9.817658
-0.599499 -2.756792 -9.926819
-0.603405 -2.684727 -9.991511
-0.584914 -3.274836 -9.685311
-0.590623 -3.212673 -9.77986
-0.6084 -2.603796 -10.074217
-0.613346 -2.504332 -10.156109
-0.598821 -3.14964 -9.915591
-0.602514 -3.054654 -9.976756
-0.672656 -2.034838 -11.138202
-0.621225 -2.42275 -10.286583
-0.611478 -2.322528 -10.125173
-0.618941 -2.252231 -10.248754
-0.63194 -2.222389 -10.464005
-0.66156 -4.269216 -10.431507
-0.676099 -2.144504 -10.660771
-0.689761 -2.074224 -10.876195
-0.649667 -4.093853 -10.243984
-0.641052 -3.927766 -10.108148
-0.634015 -3.778166 -9.997175
-0.628266 -3.616072 -9.906525
-0.626639 -2.916574 -9.880877
-0.629545 -2.854869 -9.926698
-0.629527 -3.507439 -9.926412
-0.629534 -3.44445 -9.926525
-0.632917 -2.772041 -9.979864
-0.633719 -2.685498 -9.992514
-0.630516 -3.362258 -9.942007
-0.619857 -3.211329 -9.773943
-0.634709 -2.587198 -10.008125
-0.644747 -2.507339 -10.166405
-0.633102 -3.171575 -9.982784
-0.629074 -3.037621 -9.919275
-0.65553 -2.434944 -10.336431
-0.660696 -2.390118 -10.417889
-0.660863 -2.290404 -10.420516
-0.664819 -2.22682 -10.482905
-0.715799 -2.167364 -10.772305
-0.741372 -2.128224 -11.157159
-0.686467 -4.129386 -10.330875
-0.671505 -3.927586 -10.105705
-0.667582 -3.797612 -10.046664
-0.659822 -3.62531 -9.929889
-0.652299 -2.898189 -9.816669
-0.662506 -2.867966 -9.970284
-0.657497 -3.49699 -9.894901
-0.663395 -3.464951 -9.983652
-0.668413 -2.794616 -10.059171
-0.665995 -2.69416 -10.022781
-0.662222 -3.371035 -9.966005
-0.652551 -3.227246 -9.820465
-0.670498 -2.609019 -10.090561
-0.67458 -2.504272 -10.151984
-0.660544 -3.158837 -9.940744
-0.655341 -3.02081 -9.862448
-0.685383 -2.43027 -10.314568
-0.694049 -2.396803 -10.444981
-0.692088 -2.289744 -10.415471
-0.699734 -2.237375 -10.530533
-0.753666 -2.182956 -10.847578
-0.713745 -4.107096 -10.273004
-0.714286 -3.996447 -10.280778
-0.704112 -3.831541 -10.134347
-0.701267 -3.685764 -10.093404
-0.697168 -2.96308 -10.034408
-0.691335 -2.862845 -9.950443
-0.701123 -3.567143 -10.091333
-0.695695 -3.475918 -10.013198
-0.705204 -2.820447 -10.150067
-0.70763 -2.738322 -10.184983
-0.687502 -3.347796 -9.895277
-0.69637 -3.294454 -10.022923
-0.702844 -2.616157 -10.116094
-0.714263 -2.536484 -10.280456
-0.689564 -3.154468 -9.92496
-0.689287 -3.039359 -9.920973
-0.726084 -2.462825 -10.450595
-0.72041 -2.379839 -10.368929
-0.72882 -2.306596 -10.489976
-0.730283 -2.23369 -10.511037
-0.804415 -2.233026 -11.094008
-0.75717 -4.060158 -10.442437
-0.748992 -3.906214 -10.329641
-0.728137 -3.667786 -10.042022
-0.72378 -2.948217 -9.981937
-0.734839 -2.916413 -10.134459
-0.719896 -3.510289 -9.92837
-0.722937 -3.461771 -9.970309
-0.72987 -2.797667 -10.065933
-0.737392 -2.734791 -10.169673
-0.727117 -3.393412 -10.027957
-0.721355 -3.270689 -9.94849
-0.739628 -2.638549 -10.200497
-0.744129 -2.532615 -10.262581
-0.730278 -3.201745 -10.071552
-0.717561 -3.032408 -9.896166
-0.754084 -2.451397 -10.399874
-0.752948 -2.383855 -10.384204
-0.769506 -2.334052 -10.612569
-0.786129 -2.304478 -10.84182
-0.786588 -4.049485 -10.412662
-0.769198 -3.851414 -10.182456
-0.759508 -3.673047 -10.05418
-0.759416 -2.969859 -10.052968
-0.765412 -2.916454 -10.132339
-0.758118 -3.549057 -10.035777
-0.759201 -3.490259 -10.050116
-0.777934 -2.862835 -10.298107
-0.769815 -2.741038 -10.190627
-0.756114 -3.38784 -10.009256
-0.764518 -3.327982 -10.120501
-0.778813 -2.667403 -10.309743
-0.785344 -2.566161 -10.396193
-0.76064 -3.201702 -10.069169
-0.763345 -3.097083 -10.104974
-0.7936 -2.476843 -10.505483
-0.802202 -2.438383 -10.61936
-0.808219 -2.353587 -10.699001
-0.823595 -2.317904 -10.902553
-0.815909 -3.928471 -10.383767
-0.80893 -3.761882 -10.294956
-0.806152 -3.031606 -10.259596
-0.79754 -2.922217 -10.150002
-0.795676 -3.581894 -10.126279
-0.791984 -3.501205 -10.079289
-0.802711 -2.840616 -10.215807
-0.809968 -2.773296 -10.30816
-0.799331 -3.44399 -10.172787
-0.795222 -3.328755 -10.120499
-0.820116 -2.701037 -10.437314
-0.824734 -2.591421 -10.496088
-0.778811 -3.152344 -9.911637
-0.805149 -3.141293 -10.246839
-0.826505 -2.480518 -10.518627
-0.834476 -2.439114 -10.620072
-0.849097 -2.377707 -10.806137
-0.845111 -2.287153 -10.755412
-0.844819 -3.783581 -10.351836
-0.83448 -3.022159 -10.225156
-0.841211 -2.968317 -10.307635
-0.830238 -3.599354 -10.17318
-0.837155 -3.564122 -10.257938
-0.848023 -2.890058 -10.391106
-0.845856 -2.78914 -10.364547
-0.828852 -3.439204 -10.156195
-0.834778 -3.36519 -10.228803
-0.862711 -2.736314 -10.571077
-0.849663 -2.571083 -10.411199
-0.834426 -3.25263 -10.224489
-0.830188 -3.119277 -10.172564
-0.881786 -2.548621 -10.804805
-0.887164 -2.49728 -10.870706
-0.901339 -2.430719 -11.044395
-0.901607 -3.894024 -10.651337
-0.869946 -3.038333 -10.277303
-0.866667 -2.949164 -10.238557
-0.879162 -3.675634 -10.386176
-0.870413 -3.573662 -10.282817
-0.883064 -2.902234 -10.432266
-0.872913 -2.775789 -10.312351
-0.867897 -3.472885 -10.253089
-0.880043 -3.421247 -10.396586
-0.890273 -2.723113 -10.517441
-0.89055 -2.598778 -10.520707
-0.86059 -3.235079 -10.166765
-0.860956 -3.119609 -10.171097
-0.9111 -2.539511 -10.763485
-0.9285 -2.5205 -10.969033
-0.89956 -3.033683 -10.258906
-0.913362 -3.001146 -10.416316
-0.935139 -3.775172 -10.664664
-0.915718 -3.630337 -10.443178
-0.924599 -2.934209 -10.544464
-0.913717 -2.805592 -10.420362
-0.924655 -3.572722 -10.545098
-0.903334 -3.390986 -10.301949
-0.930404 -2.747965 -10.610668
-0.936509 -2.638883 -10.680288
-0.91039 -3.304559 -10.382421
-0.913618 -3.196545 -10.419229
-0.956339 -2.573906 -10.906432
-0.954309 -3.111326 -10.518638
-0.950172 -3.018303 -10.473045
-1.002785 -3.913677 -11.052959
-0.964813 -3.697812 -10.634419
-0.957085 -2.936328 -10.549241
-0.953121 -2.829289 -10.505548
-0.964053 -3.601116 -10.626046
-0.944564 -3.427878 -10.411226
-0.978887 -2.795043 -10.789548
-0.996081 -2.713433 -10.979059
-0.958607 -3.363899 -10.566014
-0.949961 -3.213206 -10.470718
-0.985847 -3.110754 -10.513782
-0.982725 -3.021286 -10.48048
-1.014344 -3.011886 -10.817685
-1.010138 -2.902079 -10.772831
-1.003337 -3.627291 -10.700304
-1.00731 -3.537992 -10.742678
-1.033284 -2.855453 -11.019679
-0.991963 -3.36897 -10.578999
-0.98834 -3.235478 -10.540361
-1.046314 -3.198682 -10.807854
-1.062497 -3.164758 -10.975014
-1.069335 -3.076241 -11.045651
-1.023798 -3.368751 -10.575273
-1.024475 -3.249274 -10.582265
2.815367 -3.221514 -10.567281
2.802727 -3.12471 -10.519835
2.818211 -3.345605 -10.577955
2.721844 -3.150172 -10.341516
2.737225 -3.086636 -10.399956
2.740157 -2.98431 -10.411098
2.790726 -2.940768 -10.60323
2.771609 -3.570594 -10.530598
2.741116 -3.414634 -10.414739
2.712967 -3.257555 -10.307791
2.668642 -3.124415 -10.265057
2.632413 -3.002869 -10.125701
2.660957 -2.93166 -10.235496
2.698711 -2.876785 -10.380717
2.702188 -3.624712 -10.394094
2.674713 -3.485724 -10.288406
2.73274 -2.802051 -10.511612
2.662046 -3.354592 -10.239685
2.663952 -3.235795 -10.247017
2.601935 -3.082085 -10.133879
2.623052 -3.027324 -10.216123
2.630904 -3.730557 -10.246706
2.629439 -3.661477 -10.240998
2.613358 -2.913026 -10.178365
2.622746 -2.828636 -10.214932
2.622474 -3.559089 -10.213873
2.59677 -3.423885 -10.113762
2.660529 -2.760041 -10.362087
2.699525 -2.671798 -10.513966
2.568445 -3.274645 -10.003442
2.607384 -3.204271 -10.155098
2.635796 -3.906896 -10.395823
2.534789 -3.03825 -9.997439
2.52939 -2.953939 -9.976147
2.557922 -3.670198 -10.088681
2.56743 -3.617641 -10.12618
2.532341 -2.856284 -9.987784
2.569305 -2.803949 -10.133575
2.581103 -3.544596 -10.180109
2.533425 -3.380082 -9.99206
2.628715 -2.759463 -10.367893
2.606323 -2.610225 -10.279576
2.512057 -3.240835 -9.907782
2.568828 -3.194427 -10.131694
2.6695 -2.553599 -10.528753
2.536934 -3.805641 -10.134089
2.488968 -3.019255 -9.942486
2.494401 -2.948156 -9.964186
2.532899 -3.678059 -10.117974
2.486966 -3.546463 -9.934487
2.504746 -2.85918 -10.005512
2.535779 -2.800687 -10.129479
2.488529 -3.458618 -9.940732
2.512253 -3.392199 -10.035501
2.561985 -2.7218 -10.234159
2.538322 -2.572736 -10.139636
2.455421 -3.205916 -9.808478
2.492728 -3.137122 -9.957504
2.587889 -2.505342 -10.337637
2.629898 -2.479599 -10.505449
2.55343 -4.014177 -10.332167
2.496284 -3.790344 -10.100932
2.444914 -3.001996 -9.893071
2.476095 -2.962222 -10.01924
2.461127 -3.617436 -9.958673
2.46093 -3.552147 -9.957879
2.460383 -2.842802 -9.955665
2.480183 -2.772699 -10.035781
2.434254 -3.424459 -9.849937
2.464939 -3.368915 -9.974098
2.524214 -2.714389 -10.213949
2.511262 -2.57636 -10.16154
2.460284 -3.251454 -9.955264
2.426834 -3.091454 -9.819912
2.572511 -2.520836 -10.409377
2.580389 -2.462599 -10.441255
2.627702 -2.402526 -10.632701
2.418284 -3.848705 -9.913593
2.405069 -3.696979 -9.859419
2.398036 -2.980827 -9.830586
2.4187 -2.929321 -9.915297
2.407935 -3.582996 -9.871167
2.428444 -3.548578 -9.955241
2.422647 -2.833797 -9.931479
2.431533 -2.751908 -9.967907
2.417786 -3.443329 -9.911552
2.41636 -3.343338 -9.905708
2.488244 -2.708778 -10.200388
2.47594 -2.571516 -10.149948
2.396752 -3.206638 -9.825323
2.430153 -3.133942 -9.962251
2.494372 -2.474477 -10.225512
2.508748 -2.42382 -10.284446
2.54386 -2.354615 -10.428385
2.635432 -2.357539 -10.803779
2.475235 -4.101085 -10.281636
2.405937 -3.877004 -9.993787
2.390142 -3.720041 -9.928177
2.372758 -2.986339 -9.855966
2.391845 -2.933071 -9.935248
2.364464 -3.562368 -9.821515
2.379237 -3.520211 -9.88288
2.402314 -2.845201 -9.978738
2.369963 -2.715813 -9.844357
2.350217 -3.389012 -9.762334
2.333086 -3.268541 -9.691176
2.411556 -2.658168 -10.017125
2.440278 -2.566216 -10.136432
2.338078 -3.16731 -9.711914
2.346425 -3.063857 -9.746582
2.437929 -2.448769 -10.126674
2.486076 -2.431993 -10.326669
2.48609 -2.329958 -10.326726
2.561157 -2.319785 -10.638535
2.554404 -2.218774 -10.752902
2.396647 -4.021273 -10.08882
2.348654 -3.832729 -9.886788
2.29303 -3.614188 -9.652633
2.288773 -2.917196 -9.634716
2.31057 -2.869365 -9.726468
2.316666 -3.534652 -9.752131
2.31168 -3.463664 -9.731145
2.366557 -2.838424 -9.96215
2.340266 -2.715819 -9.85148
2.308161 -3.370609 -9.716329
2.289834 -3.24866 -9.63918
2.348356 -2.621356 -9.885531
2.404562 -2.560749 -10.122137
2.29315 -3.145872 -9.653139
2.337158 -3.090489 -9.838396
2.387549 -2.4286 -10.050516
2.418101 -2.395518 -10.179128
2.47023 -2.344476 -10.398569
2.504651 -2.297396 -10.543464
2.485446 -2.186649 -10.604757
2.389513 -4.176468 -10.195433
2.325465 -3.952031 -9.922159
2.326127 -3.844798 -9.92498
2.285994 -3.64945 -9.753746
2.287128 -2.952599 -9.758582
2.327447 -2.927505 -9.930614
2.307452 -3.565882 -9.8453
2.288625 -3.473231 -9.764969
2.281215 -2.771263 -9.733357
2.315123 -2.721201 -9.87803
2.266644 -3.352561 -9.671183
2.25339 -3.238082 -9.614633
2.313533 -2.615706 -9.871247
2.334018 -2.517597 -9.958652
2.24614 -3.12102 -9.583698
2.294173 -3.072672 -9.78864
2.36565 -2.43728 -10.093617
2.402968 -2.411149 -10.252844
2.405322 -2.312239 -10.262888
2.412532 -2.241366 -10.293651
2.431291 -2.166899 -10.516354
2.329327 -4.124366 -10.075315
2.255743 -3.883534 -9.757035
2.261648 -3.786972 -9.782575
2.257919 -3.651637 -9.766446
2.265156 -2.962368 -9.797747
2.275681 -2.899721 -9.843275
2.240156 -3.507031 -9.689614
2.214022 -3.403831 -9.576573
2.266463 -2.789247 -9.803401
2.284379 -2.720079 -9.880894
2.234474 -3.348079 -9.665033
2.246008 -3.269562 -9.714925
2.260794 -2.589412 -9.77888
2.316625 -2.531423 -10.020374
2.248348 -3.164829 -9.725047
2.212938 -3.002523 -9.571886
2.285405 -2.385311 -9.885333
2.336245 -2.37477 -10.10524
2.344353 -2.283019 -10.140311
2.387172 -2.246728 -10.325521
2.304827 -4.23455 -10.108148
2.380456 -2.149642 -10.439831
2.414568 -2.067217 -10.589435
2.255504 -4.046456 -9.891837
2.226568 -3.883988 -9.764935
2.246726 -3.811725 -9.853337
2.207026 -3.616521 -9.679227
2.187377 -2.898471 -9.593055
2.206459 -2.848689 -9.676739
2.228458 -3.534843 -9.773221
2.198525 -3.424694 -9.641945
2.228883 -2.779265 -9.775084
2.228977 -2.689203 -9.775498
2.230199 -3.385856 -9.780857
2.186018 -3.224309 -9.587097
2.22763 -2.585162 -9.769592
2.223081 -2.461323 -9.74964
2.214785 -3.158804 -9.713258
2.2088 -3.036532 -9.68701
2.277682 -2.408681 -9.9891
2.273764 -2.341816 -9.971917
2.335625 -2.304591 -10.243218
2.333699 -2.225441 -10.234773
2.247761 -4.18508 -9.996884
2.317968 -2.121281 -10.309131
2.384066 -2.068471 -10.6031
2.196366 -3.993196 -9.768309
2.190164 -3.871715 -9.740726
2.164995 -3.722316 -9.628787
2.190184 -3.637047 -9.740813
2.1894 -2.940053 -9.737327
2.182132 -2.855058 -9.705
2.144312 -3.446978 -9.5368
2.13951 -3.377455 -9.515444
2.158403 -2.727471 -9.599471
2.201882 -2.692134 -9.792839
2.163044 -3.327936 -9.620109
2.16576 -3.237262 -9.632187
2.183575 -2.568015 -9.711421
2.199951 -2.468375 -9.784252
2.147332 -3.103666 -9.550229
2.184696 -3.043668 -9.716406
2.47768 -2.059651 -11.019448
2.23867 -2.399171 -9.956456
2.239375 -2.337325 -9.959591
2.287299 -2.287171 -10.172733
2.274107 -2.197692 -10.114062
2.249247 -4.329782 -10.14638
2.199298 -4.15054 -9.921059
2.294 -2.1279 -10.348261
2.325301 -2.044924 -10.489458
2.149266 -3.960708 -9.695361
2.167085 -3.883019 -9.775748
2.1317 -3.714917 -9.616122
2.127586 -3.581149 -9.597566
2.144582 -2.919038 -9.674235
2.133148 -2.828927 -9.622653
2.10451 -3.429007 -9.493468
2.125083 -3.400306 -9.586273
2.138417 -2.738967 -9.646424
2.166812 -2.685288 -9.774516
2.121727 -3.308764 -9.571133
2.115433 -3.205041 -9.542741
2.180418 -2.599178 -9.835892
2.203185 -2.505625 -9.938595
2.120507 -3.106579 -9.56563
2.12106 -2.995202 -9.568128
2.3895 -2.013364 -10.779062
2.213986 -2.404988 -9.987318
2.192392 -2.319408 -9.889904
2.219344 -2.249402 -10.011488
2.208416 -2.163234 -9.962189
2.167969 -4.230899 -9.921242
2.150291 -4.11404 -9.840343
2.241543 -2.107926 -10.257936
2.263886 -2.018383 -10.360186
2.126725 -3.973242 -9.732499
2.096867 -3.809036 -9.595859
2.087236 -3.687614 -9.551785
2.098907 -3.581616 -9.605192
2.073977 -2.861882 -9.491108
2.07478 -2.789483 -9.494782
2.079963 -3.435767 -9.518501
2.115801 -3.432162 -9.682508
2.109921 -2.739752 -9.655597
2.102893 -2.642028 -9.623435
2.096698 -3.314844 -9.595084
2.092023 -3.213302 -9.573689
2.132183 -2.576745 -9.757474
2.151421 -2.480511 -9.845512
2.107589 -3.130252 -9.644925
2.072008 -2.966301 -9.482097
2.327807 -1.988442 -10.652707
2.156851 -2.375247 -9.87036
2.142699 -2.298111 -9.805599
2.211373 -2.272245 -10.119869
2.220482 -2.205062 -10.161555
2.114907 -4.185128 -9.820333
2.077727 -4.030859 -9.647692
2.217953 -2.114943 -10.298818
2.186898 -1.97704 -10.154617
2.128922 -4.033028 -9.885412
2.07944 -3.830263 -9.65565
2.040019 -3.654651 -9.472598
2.070469 -3.582553 -9.613993
2.161468 -4.371705 -10.036534
2.077521 -2.906907 -9.646738
2.06474 -2.814848 -9.587391
2.067653 -3.463248 -9.600915
2.051918 -3.375132 -9.527853
2.079538 -2.738104 -9.656103
2.086327 -2.657912 -9.687629
2.046752 -3.281183 -9.503867
2.042809 -3.181638 -9.485553
2.078581 -2.547135 -9.65166
2.111922 -2.469059 -9.806474
2.052099 -3.090507 -9.528692
2.080542 -3.020217 -9.660762
2.251054 -1.949799 -10.452519
2.342719 -1.929112 -10.878153
2.1206 -2.36802 -9.846769
2.126284 -2.312431 -9.873159
2.179238 -2.270574 -10.119048
2.152231 -2.167206 -9.993642
2.085239 -4.185048 -9.82648
2.062667 -4.058497 -9.720109
2.150733 -2.079983 -10.135113
2.190439 -2.008376 -10.322224
2.042529 -3.924341 -9.625214
2.067922 -3.863166 -9.744874
1.999529 -3.63301 -9.42258
2.018368 -3.542022 -9.511356
2.124388 -4.357756 -10.010962
2.030018 -2.880796 -9.566254
2.037158 -2.816703 -9.599898
2.001021 -3.399262 -9.429608
2.010611 -3.354176 -9.474802
2.034862 -2.717346 -9.589081
2.039141 -2.634708 -9.609247
2.019406 -3.283339 -9.516245
2.011063 -3.176696 -9.476931
2.079917 -2.584985 -9.801399
2.050437 -2.431236 -9.662477
2.007419 -3.066171 -9.459759
2.037704 -3.000059 -9.602473
2.205038 -1.937078 -10.391021
2.255126 -1.883367 -10.62705
2.122022 -2.403275 -9.999815
2.106037 -2.322955 -9.924488
2.127784 -2.248463 -10.026968
2.139217 -2.184707 -10.080844
2.053905 -4.18161 -9.824645
2.042994 -4.077763 -9.772454
2.100473 -2.060673 -10.047402
2.141486 -1.991809 -10.243582
2.009684 -3.916922 -9.61312
2.021224 -3.830383 -9.66832
1.985388 -3.659342 -9.496906
2.008411 -3.575381 -9.607034
2.058064 -4.282592 -9.844541
1.965601 -2.829611 -9.402257
2.017639 -2.829949 -9.651172
1.967424 -3.390391 -9.410977
1.952709 -3.304563 -9.340588
1.981063 -2.683656 -9.476213
2.004641 -2.627487 -9.589
1.986874 -3.277035 -9.504011
1.976763 -3.167549 -9.455646
2.015683 -2.541282 -9.641818
2.031465 -2.44348 -9.717309
2.003428 -3.104208 -9.583197
1.95502 -2.919838 -9.351643
2.147528 -1.913764 -10.272484
2.21783 -1.878932 -10.608766
2.04302 -2.347172 -9.772579
2.048953 -2.292585 -9.80096
2.270856 -1.833118 -10.862412
2.085801 -2.235887 -9.977222
2.115716 -2.191869 -10.120317
2.00908 -4.150239 -9.757044
1.991456 -4.033094 -9.671454
2.071805 -2.062308 -10.061666
2.107976 -1.989348 -10.237329
1.934886 -3.826353 -9.39672
1.977359 -3.802121 -9.602988
1.966226 -3.677083 -9.548923
1.967319 -3.553506 -9.554232
2.040425 -4.308053 -9.909268
1.940637 -2.834576 -9.424648
1.993665 -2.837265 -9.682178
1.962416 -3.431274 -9.53042
1.930379 -3.314604 -9.374834
1.96193 -2.696651 -9.528058
1.972894 -2.623736 -9.581305
1.957368 -3.275638 -9.505906
1.948889 -3.168609 -9.464729
2.002606 -2.561762 -9.725604
2.0111 -2.454401 -9.766851
1.956223 -3.075445 -9.500343
1.945838 -2.948674 -9.449911
2.122268 -1.918945 -10.30674
2.145864 -1.844581 -10.421332
2.014108 -2.347835 -9.78146
2.015213 -2.287847 -9.786825
2.224984 -1.822386 -10.805575
2.043818 -2.22296 -9.925748
2.015551 -2.118671 -9.788469
1.981365 -4.153847 -9.771546
1.943738 -3.994987 -9.58598
2.063704 -2.084789 -10.177618
2.054786 -1.967986 -10.133641
1.931986 -3.87743 -9.528025
1.935987 -3.777922 -9.547752
1.935193 -3.672861 -9.543839
1.923896 -3.526744 -9.488124
2.05628 -4.552032 -10.141007
1.997944 -4.281086 -9.853311
1.906651 -2.826346 -9.403078
1.945523 -2.809923 -9.594785
1.88557 -3.345932 -9.299111
1.89894 -3.309105 -9.365051
1.909397 -2.66347 -9.416621
1.937922 -2.615551 -9.557301
1.913064 -3.2491 -9.434705
1.908419 -3.148947 -9.411798
1.985272 -2.577351 -9.790816
1.968185 -2.437744 -9.706546
1.899031 -3.029925 -9.365498
1.940599 -2.984462 -9.570498
2.079192 -1.90795 -10.254004
2.077319 -1.812212 -10.244767
1.971147 -2.331922 -9.721152
1.994215 -2.297673 -9.834921
2.175963 -1.808736 -10.731252
2.019715 -2.229408 -9.960675
2.020393 -2.15534 -9.964022
1.919229 -4.084351 -9.613896
1.920341 -4.006511 -9.619466
1.97597 -2.026308 -9.898126
2.037808 -1.981203 -10.20789
1.873898 -3.81765 -9.386819
1.901272 -3.766215 -9.523944
1.865069 -3.593233 -9.342593
1.866916 -3.47398 -9.351846
2.004313 -4.504004 -10.040101
1.948717 -4.238669 -9.761607
1.872609 -2.817809 -9.380367
1.903292 -2.790446 -9.534062
1.872046 -3.372107 -9.377546
1.891089 -3.345195 -9.472934
1.915247 -2.71198 -9.593947
1.936957 -2.653731 -9.702701
1.873543 -3.230037 -9.385042
1.862423 -3.119466 -9.329342
1.918331 -2.528059 -9.609398
1.941395 -2.44088 -9.724931
1.893762 -3.067154 -9.486325
1.881476 -2.937238 -9.424781
2.048551 -1.908224 -10.2617
2.076931 -1.839239 -10.403867
1.950972 -2.342914 -9.772903
1.941344 -2.270539 -9.724676
2.122966 -1.791335 -10.634464
2.217098 -1.771217 -11.105995
1.968693 -2.20591 -9.861671
1.977581 -2.141531 -9.906195
1.898417 -4.102051 -9.661329
1.87889 -3.980178 -9.561953
1.948246 -2.028534 -9.914922
1.972461 -1.947095 -10.038151
1.875823 -3.880211 -9.546346
1.862333 -3.745688 -9.477695
1.821122 -3.562402 -9.267965
1.838733 -3.474038 -9.357589
1.964058 -4.481268 -9.995388
1.898278 -4.192316 -9.660623
1.825214 -2.788633 -9.288789
1.862761 -2.772929 -9.479874
1.833874 -3.354035 -9.332863
1.813692 -3.257515 -9.230155
1.841758 -2.647938 -9.372987
1.87757 -2.611839 -9.555239
1.834585 -3.211404 -9.336478
1.840167 -3.129481 -9.364886
1.863033 -2.492859 -9.481258
1.907499 -2.435062 -9.707549
1.863228 -3.064005 -9.482249
1.871056 -2.965792 -9.522089
1.988872 -1.881061 -10.121673
2.03662 -1.831215 -10.364665
1.918531 -2.339308 -9.763692
1.916128 -2.275435 -9.751467
2.074522 -1.777319 -10.557558
2.133727 -1.730768 -10.858856
1.931248 -2.197157 -9.828411
1.924219 -2.11572 -9.792645
1.856479 -4.073977 -9.60085
1.852734 -3.985964 -9.581483
1.915008 -2.025015 -9.903539
1.940753 -1.945666 -10.036679
1.827133 -3.838423 -9.449089
1.826546 -3.730989 -9.446054
1.842456 -3.660329 -9.528333
1.817947 -3.48832 -9.401585
1.924166 -4.458699 -9.950896
1.857091 -4.165301 -9.604016
1.836911 -2.850263 -9.499657
1.79765 -2.717726 -9.296615
1.802064 -3.347244 -9.319442
1.851202 -3.376726 -9.573564
1.821722 -2.659968 -9.421107
1.840576 -2.600298 -9.51861
1.844419 -3.278958 -9.538483
1.812893 -3.131168 -9.375446
1.851827 -2.516497 -9.576792
1.880086 -2.437489 -9.722939
1.80688 -3.017671 -9.34435
1.811542 -2.916227 -9.368458
1.96346 -1.88598 -10.154107
2.008315 -1.83392 -10.38608
1.867165 -2.312174 -9.656116
1.87148 -2.257065 -9.678431
1.991691 -1.732959 -10.300106
2.084979 -1.717596 -10.78255
1.916542 -2.214423 -9.91147
1.916127 -2.13967 -9.909325
2.061746 -1.654305 -10.837656
1.824383 -4.066996 -9.589945
1.825982 -3.990673 -9.598353
1.869185 -2.007886 -9.82545
1.924105 -1.959548 -10.114139
1.839517 -3.925686 -9.669497
1.780855 -3.695312 -9.361141
1.942139 -4.68426 -10.208936
1.783857 -3.60008 -9.376919
1.798378 -3.505462 -9.453252
1.852596 -4.360893 -9.738247
1.842535 -4.198153 -9.685364
1.813419 -2.858407 -9.532312
1.792594 -2.753035 -9.422846
1.806872 -3.409367 -9.4979
1.775149 -3.289318 -9.331144
1.821359 -2.701587 -9.574053
1.808965 -2.596144 -9.508902
1.806749 -3.262897 -9.497253
1.774022 -3.112593 -9.325221
1.816968 -2.508261 -9.550972
1.809538 -2.383207 -9.511912
1.788152 -3.033726 -9.3995
1.801 -2.945208 -9.467035
1.957661 -1.910213 -10.290528
1.952577 -1.811281 -10.263806
1.832818 -2.305612 -9.634286
1.846835 -2.262643 -9.707964
1.978803 -1.749033 -10.401659
2.020919 -1.691209 -10.623045
1.861997 -2.185498 -9.787669
1.889535 -2.143417 -9.932419
2.016361 -1.643959 -10.776009
1.777231 -4.025725 -9.49803
1.794704 -3.985517 -9.591409
1.880885 -2.053011 -10.051988
1.879021 -1.94447 -10.042026
1.788472 -3.878254 -9.558104
1.774129 -3.740675 -9.481451
1.878044 -4.602659 -10.036802
1.753954 -3.596769 -9.373629
1.769517 -3.504783 -9.456801
1.834 -4.386687 -9.801421
1.796751 -4.159803 -9.602352
1.775087 -2.843072 -9.48657
1.745623 -2.724097 -9.329106
1.76741 -3.388644 -9.445543
1.744425 -3.284473 -9.322705
1.769996 -2.667707 -9.459365
1.766807 -2.576499 -9.44232
1.756554 -3.223363 -9.387525
1.769919 -3.155434 -9.458951
1.8045 -2.531188 -9.643762
1.786038 -2.39016 -9.545096
1.784545 -3.076391 -9.537119
1.785371 -2.966696 -9.541533
1.886925 -1.870859 -10.084264
1.911281 -1.801542 -10.21443
1.799833 -2.300602 -9.618821
1.826916 -2.274306 -9.76356
1.945982 -1.747739 -10.399882
1.96659 -1.672263 -10.510019
1.82825 -2.180466 -9.770692
1.817717 -2.095176 -9.7144
1.981103 -1.641679 -10.767089
1.755864 -4.042497 -9.542939
1.757151 -3.966061 -9.549931
1.800412 -1.997375 -9.785054
1.84915 -1.944913 -10.049937
1.747284 -3.851023 -9.496305
1.736743 -3.721851 -9.439017
1.844294 -4.594007 -10.023544
1.710569 -3.56528 -9.296765
1.694997 -3.412197 -9.212132
1.813607 -4.40899 -9.856769
1.77743 -4.182499 -9.660147
1.731521 -2.818738 -9.410638
1.712678 -2.716479 -9.308225
1.711491 -3.335199 -9.301773
1.739856 -3.329549 -9.455939
1.704998 -2.61185 -9.266487
1.763805 -2.614267 -9.586095
1.724091 -3.215634 -9.370257
1.731161 -3.136908 -9.408679
1.738959 -2.479223 -9.451063
1.762249 -2.396968 -9.577641
1.712978 -3.001404 -9.309857
1.7378 -2.934964 -9.444761
1.833998 -1.848179 -9.967588
1.905434 -1.82546 -10.355835
1.802756 -2.342097 -9.797791
1.781066 -2.253559 -9.679908
1.883312 -1.719169 -10.235603
1.933684 -1.671225 -10.509373
1.784423 -2.163068 -9.698156
1.801935 -2.111017 -9.793326
1.909114 -1.608395 -10.554601
1.970227 -1.587475 -10.892466
1.716964 -4.018831 -9.492294
1.69045 -3.879115 -9.345713
1.793493 -2.022866 -9.915386
1.811486 -1.937059 -10.014861
1.697448 -3.803549 -9.384401
1.681237 -3.662959 -9.294774
1.76459 -4.468741 -9.755596
1.686225 -3.573127 -9.322353
1.719876 -3.519995 -9.508392
1.741991 -4.305479 -9.630656
1.737358 -4.156353 -9.605042
1.698588 -2.81122 -9.390704
1.701578 -2.743862 -9.407229
1.658619 -3.286047 -9.169732
1.672776 -3.254539 -9.247998
1.717202 -2.674395 -9.49361
1.731174 -2.608675 -9.570853
1.678051 -3.181934 -9.277159
1.695138 -3.122836 -9.371627
1.708573 -2.476506 -9.445903
1.739683 -2.405718 -9.617895
1.717849 -3.060112 -9.497183
1.691613 -2.904583 -9.352138
1.838402 -1.883499 -10.16367
1.847646 -1.799605 -10.214774
1.741473 -2.300194 -9.627795
1.751168 -2.252664 -9.68139
1.862667 -1.728667 -10.297818
1.904166 -1.673146 -10.527245
1.750886 -2.157794 -9.679831
1.762822 -2.099621 -9.74582
1.889303 -1.618702 -10.627984
1.931506 -1.582673 -10.865391
1.697168 -4.039874 -9.547157
1.680922 -3.922675 -9.455772
1.74682 -2.003642 -9.826469
1.756227 -1.909822 -9.879385
1.675454 -3.817943 -9.425011
1.6615 -3.681358 -9.346515
1.75501 -4.519864 -9.872539
1.65496 -3.566356 -9.309724
1.669942 -3.475769 -9.394005
1.724223 -4.333845 -9.699351
1.706156 -4.150939 -9.59772
1.681395 -2.829964 -9.458431
1.646102 -2.699428 -9.259895
1.660241 -3.345051 -9.339433
1.65306 -3.270732 -9.299039
1.685926 -2.670219 -9.483917
1.678759 -2.572599 -9.443602
1.659646 -3.200413 -9.336083
1.673229 -3.134757 -9.412492
1.677624 -2.472891 -9.437215
1.701888 -2.393372 -9.573711
1.669246 -3.023968 -9.390086
1.643876 -2.870492 -9.247375
1.791491 -1.866568 -10.077756
1.806238 -1.789113 -10.160719
1.721281 -2.312085 -9.682803
1.711522 -2.239008 -9.627904
1.831961 -1.729007 -10.305415
1.845438 -1.649047 -10.381232
1.698694 -2.128981 -9.555746
1.733292 -2.099465 -9.750367
1.847037 -1.60981 -10.575213
1.855414 -1.546569 -10.623178
1.655025 -4.007569 -9.47585
1.635813 -3.883308 -9.365851
1.715705 -2.001925 -9.823272
1.737435 -1.922005 -9.947691
1.650099 -3.82508 -9.447648
1.638433 -3.692919 -9.380852
1.699937 -4.45361 -9.732996
1.623275 -3.558467 -9.294066
1.641253 -3.475028 -9.396997
1.70714 -4.364984 -9.774235
1.66817 -4.128588 -9.551114
1.646391 -2.818887 -9.426418
1.644356 -2.743117 -9.414764
1.618719 -3.317696 -9.267983
1.635234 -3.291317 -9.362538
1.662237 -2.67815 -9.51714
1.645534 -2.565216 -9.421508
1.631036 -3.19954 -9.338498
1.632151 -3.110588 -9.344887
1.652722 -2.478242 -9.462663
1.673654 -2.394298 -9.582508
1.617634 -2.981059 -9.261765
1.645727 -2.923335 -9.422615
1.741184 -1.845472 -9.969152
1.777564 -1.791107 -10.177447
1.686838 -2.304936 -9.657996
1.675376 -2.229559 -9.592369
1.75681 -1.686704 -10.058617
1.812032 -1.647149 -10.374794
1.691243 -2.156235 -9.683218
1.703906 -2.099501 -9.755717
1.805478 -1.601244 -10.524439
1.827888 -1.550403 -10.655071
1.883379 -1.535992 -10.978534
1.633653 -4.025342 -9.522841
1.610109 -3.889465 -9.385599
1.697282 -2.015235 -9.893744
1.707964 -1.922608 -9.956009
1.598593 -3.770809 -9.318466
1.616267 -3.706982 -9.421493
1.659154 -4.423157 -9.671489
1.594437 -3.556679 -9.294248
1.601116 -3.449625 -9.333174
1.652762 -4.300214 -9.634228
1.635056 -4.117751 -9.531019
1.617094 -2.817385 -9.426314
1.608919 -2.731172 -9.378661
1.592587 -3.321503 -9.283462
1.582236 -3.240614 -9.223121
1.615903 -2.649255 -9.419375
1.619627 -2.569203 -9.441079
1.594606 -3.183053 -9.295231
1.583145 -3.070217 -9.228419
1.643055 -2.507046 -9.577644
1.639871 -2.387199 -9.559086
1.595405 -2.991765 -9.299884
1.609258 -2.908793 -9.380637
1.713733 -1.8483 -9.989639
1.745318 -1.789522 -10.173754
1.656631 -2.303444 -9.656784
1.647641 -2.231186 -9.604381
1.751169 -1.710836 -10.207859
1.785489 -1.651546 -10.407919
1.655344 -2.147557 -9.649283
1.688219 -2.11673 -9.840916
1.759052 -1.587994 -10.442705
1.801417 -1.5553 -10.694208
1.857818 -1.542266 -11.029037
1.58026 -3.963479 -9.381301
1.565624 -3.849703 -9.294415
1.642126 -1.984647 -9.748572
1.662185 -1.904569 -9.867655
1.576363 -3.784934 -9.358169
1.569404 -3.663931 -9.316851
1.690085 -4.721459 -10.033285
1.649321 -4.475648 -9.791283
1.579052 -3.58541 -9.374131
1.553318 -3.406549 -9.221355
1.63611 -4.333086 -9.712854
1.599714 -4.100861 -9.496792
1.566344 -2.777816 -9.29869
1.559584 -2.694814 -9.258558
1.539523 -3.268305 -9.139462
1.579956 -3.293868 -9.379495
1.572629 -2.624459 -9.335997
1.582713 -2.555588 -9.395861
1.553905 -3.157331 -9.224843
1.57306 -3.105265 -9.338553
1.60538 -2.493407 -9.530425
1.588929 -2.354446 -9.432766
1.554997 -2.968188 -9.231323
1.595832 -2.936157 -9.473742
1.679308 -1.843592 -9.969304
1.707623 -1.782214 -10.137401
1.627416 -2.303328 -9.661246
1.59756 -2.202091 -9.484
1.710596 -1.701113 -10.155047
1.757944 -1.655174 -10.436133
1.618367 -2.137167 -9.607522
1.6242 -2.072914 -9.642153
1.726219 -1.586772 -10.439921
1.763549 -1.550372 -10.665689
1.768204 -1.494641 -10.693842
1.567088 -4.002116 -9.477522
1.548147 -3.876147 -9.36297
1.596009 -1.964086 -9.652433
1.634302 -1.906767 -9.884019
1.540938 -3.767345 -9.319372
1.564467 -3.71901 -9.461671
1.654582 -4.706567 -10.006675
1.626263 -4.493553 -9.835403
1.55594 -3.597356 -9.4101
1.548059 -3.456928 -9.36244
1.572278 -4.239969 -9.508911
1.562279 -4.077928 -9.448439
1.539205 -2.779463 -9.308888
1.540658 -2.710657 -9.317678
1.526792 -3.300385 -9.233815
1.532079 -3.252301 -9.265793
1.560982 -2.652527 -9.440597
1.543948 -2.538457 -9.337577
1.539797 -3.185719 -9.312472
1.536556 -3.088518 -9.292867
1.569187 -2.481638 -9.490216
1.55689 -2.349039 -9.415843
1.545345 -3.003555 -9.346025
1.549414 -2.902739 -9.370631
1.649037 -1.843373 -9.973139
1.65869 -1.762712 -10.031519
1.593672 -2.2967 -9.638295
1.591842 -2.234223 -9.627231
1.670854 -1.691892 -10.105086
1.697055 -1.626982 -10.263545
1.621021 -2.179709 -9.803701
1.60034 -2.079709 -9.678626
1.696484 -1.588418 -10.455913
1.708207 -1.529625 -10.528164
1.76013 -1.515464 -10.848181
1.78344 -1.471798 -10.991848
1.52522 -3.967574 -9.400365
1.516263 -3.866862 -9.345158
1.573437 -1.972289 -9.697536
1.575035 -1.871768 -9.707387
1.518531 -3.781551 -9.359135
1.512183 -3.66152 -9.320012
1.626678 -4.713175 -10.025674
1.587258 -4.467278 -9.782722
1.513355 -3.563916 -9.327235
1.503105 -3.418914 -9.264062
1.557781 -4.278937 -9.601048
1.550498 -4.122382 -9.556156
1.520928 -2.797495 -9.373912
1.53225 -2.745959 -9.44369
1.513129 -3.331632 -9.325845
1.5054 -3.25505 -9.278209
1.540195 -2.665837 -9.492656
1.520452 -2.546278 -9.370975
1.495683 -3.151952 -9.218317
1.490031 -3.050656 -9.183481
1.525051 -2.456656 -9.399323
1.546603 -2.376881 -9.532152
1.508832 -2.987082 -9.299357
1.51764 -2.896046 -9.353643
1.629214 -1.855056 -10.041307
1.665409 -1.80274 -10.264384
1.556624 -2.284995 -9.593915
1.535676 -2.195443 -9.464806
1.635074 -1.686427 -10.077424
1.662393 -1.623367 -10.245799
1.583291 -2.168537 -9.75827
1.597961 -2.115206 -9.848689
1.67487 -1.59789 -10.523365
1.657092 -1.511966 -10.411664
1.703457 -1.494455 -10.702979
1.726421 -1.451734 -10.84726
1.485403 -3.9372 -9.332922
1.48376 -3.85566 -9.322603
1.551976 -1.982244 -9.751208
1.565559 -1.895753 -9.836549
1.470053 -3.730183 -9.236478
1.49178 -3.68055 -9.372991
1.592073 -4.700303 -10.003139
1.526159 -4.376692 -9.589001
1.483528 -3.559862 -9.321141
1.472321 -3.41234 -9.250731
1.528986 -4.279408 -9.606757
1.50415 -4.07492 -9.450713
1.460604 -2.737436 -9.17711
1.478285 -2.699439 -9.288202
1.448597 -3.24997 -9.101668
1.466558 -3.231139 -9.214518
1.478301 -2.607184 -9.288302
1.486005 -2.535737 -9.336707
1.484143 -3.186888 -9.325009
1.463013 -3.052087 -9.192244
1.50472 -2.469827 -9.454297
1.511585 -2.367075 -9.49743
1.479202 -2.983903 -9.293964
1.482686 -2.882947 -9.315852
1.569248 -1.820628 -9.859732
1.601532 -1.766439 -10.062575
1.493584 -2.233993 -9.384323
1.536984 -2.238942 -9.65701
1.629713 -1.712743 -10.239638
1.621683 -1.613615 -10.189185
1.550775 -2.164241 -9.743662
1.535493 -2.071023 -9.647641
1.631888 -1.586963 -10.45637
1.64794 -1.532666 -10.559224
1.655617 -1.480547 -10.608413
1.691861 -1.45016 -10.840652
1.46356 -3.954252 -9.377801
1.444728 -3.826766 -9.25714
1.543722 -2.009797 -9.891447
1.539244 -1.8999 -9.86275
1.433815 -3.708523 -9.18721
1.444559 -3.632905 -9.256055
1.541442 -4.63875 -9.876837
1.505095 -4.399677 -9.643941
1.433896 -3.507245 -9.187735
1.431426 -3.381655 -9.171903
1.48305 -4.231036 -9.502685
1.471736 -4.064139 -9.430192
1.451253 -2.77246 -9.298945
1.476639 -2.748529 -9.461609
1.440827 -3.294993 -9.232145
1.440655 -3.235395 -9.231043
1.448427 -2.603852 -9.280842
1.480477 -2.575113 -9.486198
1.444018 -3.160634 -9.252587
1.446269 -3.07545 -9.267011
1.484631 -2.483934 -9.51282
1.467426 -2.342321 -9.402575
1.461165 -3.004464 -9.362455
1.466782 -2.907127 -9.398453
1.530276 -1.809714 -9.805286
1.569338 -1.764372 -10.055578
1.518723 -2.315484 -9.731266
1.506271 -2.236595 -9.651476
1.598627 -1.712532 -10.243249
1.570285 -1.592661 -10.061651
1.494041 -2.125348 -9.57311
1.494188 -2.05425 -9.574056
1.609205 -1.59575 -10.519168
1.58919 -1.507158 -10.388329
1.614793 -1.472503 -10.555695
1.645395 -1.43813 -10.755737
1.430112 -3.940045 -9.348461
1.421321 -3.838972 -9.290996
1.498839 -1.989825 -9.797722
1.494493 -1.881023 -9.769309
1.432321 -3.777682 -9.362902
1.428658 -3.663732 -9.338951
1.509866 -4.633283 -9.869797
1.492937 -4.450158 -9.75914
1.397697 -3.486087 -9.136564
1.417831 -3.415558 -9.268178
1.436036 -4.177663 -9.387186
1.431854 -4.031943 -9.359848
1.425365 -2.776676 -9.317429
1.419803 -2.694828 -9.281069
1.419026 -3.309099 -9.275989
1.408539 -3.225618 -9.207436
1.418208 -2.59978 -9.270646
1.418542 -2.516019 -9.272828
1.391721 -3.10621 -9.097502
1.417858 -3.074463 -9.268357
1.450891 -2.475332 -9.484293
1.451665 -2.362836 -9.489349
1.409309 -2.954957 -9.212473
1.444644 -2.919685 -9.443452
1.505037 -1.814949 -9.838231
1.556717 -1.78468 -10.176058
1.44276 -2.243024 -9.431135
1.47977 -2.240554 -9.673065
1.565693 -1.710312 -10.234736
1.581742 -1.635901 -10.339643
1.473689 -2.137718 -9.633316
1.476162 -2.069469 -9.649484
1.546934 -1.564855 -10.320225
1.576739 -1.525429 -10.519067
1.587525 -1.476756 -10.591022
1.618811 -1.443355 -10.799744
1.405766 -3.950872 -9.378432
1.4076 -3.878384 -9.390668
1.459626 -1.976745 -9.73776
1.473909 -1.892431 -9.833047
1.397449 -3.759845 -9.322949
1.384102 -3.620867 -9.233904
1.482608 -4.641154 -9.891079
1.461143 -4.442993 -9.747878
1.386057 -3.526594 -9.246949
1.381992 -3.396189 -9.219828
1.414144 -4.196724 -9.434324
1.411133 -4.053522 -9.41424
1.408416 -2.798847 -9.396116
1.393496 -2.698099 -9.296578
1.388708 -3.303538 -9.26463
1.365856 -3.190789 -9.112179
1.418081 -2.651835 -9.460591
1.40958 -2.550413 -9.403883
1.36684 -3.112041 -9.118743
1.386292 -3.06648 -9.248514
1.417353 -2.466752 -9.455735
1.419817 -2.357483 -9.472176
1.387707 -2.96819 -9.257957
1.36916 -2.82279 -9.134224
1.486642 -1.828827 -9.91799
1.488511 -1.740812 -9.93046
1.433437 -2.273357 -9.563039
1.434853 -2.216244 -9.572486
1.508694 -1.681197 -10.065107
1.525406 -1.60937 -10.176601
1.434518 -2.122754 -9.570252
1.453304 -2.078405 -9.695578
1.657981 -1.424644 -11.293298
1.487624 -1.535767 -10.132916
1.528575 -1.509205 -10.41185
1.570571 -1.490992 -10.697904
1.593955 -1.450383 -10.857183
1.383226 -3.967369 -9.421807
1.380677 -3.882337 -9.404446
1.422461 -1.965978 -9.689057
1.445857 -1.894541 -9.848417
1.361048 -3.737119 -9.270745
1.339717 -3.576739 -9.125449
1.45168 -4.637671 -9.888079
1.409873 -4.375143 -9.603312
1.360216 -3.531927 -9.265079
1.336407 -3.351619 -9.102902
1.373268 -4.159125 -9.353983
1.369603 -4.01503 -9.329017
1.360068 -2.75828 -9.264071
1.34908 -2.665749 -9.189225
1.352322 -3.283054 -9.211306
1.350571 -3.219885 -9.199384
1.372249 -2.618835 -9.347042
1.369326 -2.528466 -9.32713
1.357534 -3.154335 -9.246807
1.35165 -3.05126 -9.206729
1.384159 -2.458459 -9.428166
1.396174 -2.365839 -9.510002
1.352632 -2.95259 -9.213422
1.340758 -2.821007 -9.132538
1.459685 -1.832547 -9.94261
1.444921 -1.72454 -9.84204
1.39085 -2.251121 -9.473739
1.405701 -2.215811 -9.574899
1.482344 -1.685762 -10.09695
1.485223 -1.59916 -10.116563
1.415298 -2.137326 -9.640265
1.40502 -2.050623 -9.570256
1.584286 -1.38988 -11.022548
1.45366 -1.532187 -10.113727
1.519545 -1.531764 -10.572113
1.500328 -1.454189 -10.438409
1.538679 -1.429458 -10.705235
1.345589 -3.940386 -9.361828
1.348599 -3.871694 -9.382773
1.396928 -1.971193 -9.719013
1.417966 -1.896974 -9.865383
1.326695 -3.719216 -9.230376
1.326126 -3.614728 -9.226415
1.417115 -4.622224 -9.859465
1.374668 -4.35539 -9.564144
1.341827 -3.557273 -9.335656
1.335015 -3.418368 -9.288261
1.36401 -4.217749 -9.489988
1.342629 -4.018528 -9.341236
1.343733 -2.782323 -9.348917
1.330056 -2.683293 -9.253757
1.322667 -3.278426 -9.202351
1.341163 -3.264534 -9.331037
1.347723 -2.625988 -9.376678
1.337534 -2.521575 -9.305789
1.32117 -3.134243 -9.191936
1.336732 -3.080891 -9.300209
1.348837 -2.445982 -9.384428
1.370666 -2.371341 -9.536298
1.345086 -2.997713 -9.358326
1.332528 -2.86251 -9.27096
1.431688 -1.835106 -9.960858
1.417209 -1.726951 -9.860122
1.363433 -2.253042 -9.485976
1.366732 -2.199581 -9.50893
1.44324 -1.675724 -10.041227
1.47112 -1.617205 -10.2352
1.381258 -2.129682 -9.609992
1.388811 -2.06949 -9.662544
1.517435 -1.359771 -10.78839
1.433366 -1.543185 -10.190691
1.451346 -1.494381 -10.318524
1.465704 -1.451085 -10.4206
1.484438 -1.408632 -10.553795
1.304234 -3.90116 -9.27261
1.318078 -3.865193 -9.371037
1.355459 -1.95368 -9.636799
1.389648 -1.898946 -9.879874
1.300735 -3.724613 -9.247736
1.309765 -3.646669 -9.311935
1.355721 -4.516774 -9.638665
1.339524 -4.335027 -9.523512
1.29969 -3.519429 -9.240301
1.302746 -3.407254 -9.262034
1.332877 -4.209839 -9.476254
1.328396 -4.061163 -9.444391
1.294574 -2.737998 -9.203928
1.300442 -2.679793 -9.245649
1.299897 -3.291059 -9.241773
1.288395 -3.203322 -9.160002
1.320108 -2.627322 -9.385468
1.323699 -2.54899 -9.410997
1.29699 -3.142842 -9.221108
1.301923 -3.06499 -9.256179
1.299182 -2.406444 -9.236694
1.32083 -2.33411 -9.390601
1.299299 -2.957749 -9.237526
1.2875 -2.825073 -9.153635
1.404062 -1.838277 -9.982349
1.387684 -1.727225 -9.865912
1.341049 -2.26356 -9.53435
1.361573 -2.238255 -9.680271
1.403234 -1.664202 -9.976465
1.42671 -1.602008 -10.143372
1.369648 -2.157053 -9.737679
1.355671 -2.063415 -9.638309
1.497528 -1.371341 -10.884751
1.414005 -1.555702 -10.277665
1.431008 -1.505731 -10.401256
1.440667 -1.457556 -10.471457
1.45927 -1.415097 -10.606677
1.286449 -3.932294 -9.350533
1.275163 -3.821295 -9.268497
1.344314 -1.980081 -9.771123
1.342577 -1.87483 -9.758498
1.274099 -3.728296 -9.260764
1.269408 -3.611761 -9.226666
1.325776 -4.513808 -9.636378
1.306677 -4.321398 -9.497556
1.265789 -3.502749 -9.200366
1.273736 -3.404388 -9.258125
1.28222 -4.138595 -9.319794
1.277784 -3.992046 -9.287553
1.288107 -2.784027 -9.362582
1.271187 -2.676915 -9.239595
1.267259 -3.278742 -9.211049
1.276842 -3.244171 -9.280704
1.291764 -2.627253 -9.389161
1.290359 -2.539245 -9.378953
1.256793 -3.112178 -9.134973
1.254854 -3.018923 -9.120882
1.307952 -2.475783 -9.506825
1.290117 -2.329799 -9.377189
1.287041 -2.994052 -9.354829
1.277077 -2.863616 -9.282412
1.36469 -1.825885 -9.919219
1.373653 -1.74723 -9.984373
1.302856 -2.247288 -9.469783
1.326131 -2.227767 -9.638955
