2.545616 -0.212019 -11.995958
2.561241 -0.150266 -12.069588
2.560719 -0.074587 -12.067131
2.594688 -0.009144 -12.227204
2.496372 -2.414253 -11.763904
2.481189 -2.27496 -11.692353
2.43887 -2.142494 -11.492931
2.425583 -2.025724 -11.430312
2.616809 -2.886335 -12.331448
2.422825 -1.927988 -11.417318
2.438993 -1.837578 -11.49351
2.56786 -2.713498 -12.100783
2.521902 -2.57553 -11.884209
2.398739 -1.463065 -11.474126
2.343957 -1.371115 -11.212082
2.592373 0.073601 -12.400357
2.64531 0.149094 -12.653575
2.395098 -1.331646 -11.456713
2.388359 -1.246781 -11.424476
2.39198 -1.752844 -11.441795
2.402823 -1.68398 -11.493661
2.394333 -1.19728 -11.453052
2.389108 -1.118297 -11.428059
2.390737 -1.611029 -11.435848
2.380498 -1.537546 -11.386874
2.410565 -0.627475 -11.530697
2.427914 -0.573783 -11.613684
2.409524 -1.041203 -11.525717
2.387413 -0.979181 -11.419949
2.436198 -0.495432 -11.653312
2.413601 -0.435382 -11.545218
2.409292 -0.913546 -11.524609
2.421422 -0.843161 -11.58263
2.468809 -0.363957 -11.809301
2.467969 -0.304665 -11.805283
2.383867 -0.77055 -11.402987
2.429364 -0.710026 -11.620618
2.473734 -0.209003 -11.83286
2.522286 -0.150115 -12.065101
2.505864 -0.074041 -11.98655
2.569294 -0.009185 -12.289959
2.470562 -2.423749 -11.817682
2.421527 -2.252278 -11.583133
2.443652 -2.177654 -11.688963
2.40251 -2.035393 -11.492165
2.556849 -2.860873 -12.23043
2.381136 -1.922141 -11.389926
2.402771 -1.836395 -11.493413
2.515949 -2.696986 -12.034791
2.473049 -2.562063 -11.82958
2.330108 -1.442013 -11.316108
2.337368 -1.387279 -11.351362
2.540759 0.073191 -12.339128
2.576833 0.147361 -12.514322
2.375798 -1.340255 -11.537996
2.344246 -1.24167 -11.384767
2.342126 -1.74144 -11.374472
2.348535 -1.670033 -11.405597
2.360768 -1.19778 -11.465007
2.361957 -1.121776 -11.470778
2.348907 -1.606017 -11.407405
2.325402 -1.523951 -11.293253
2.375431 -0.627383 -11.536215
2.392394 -0.573667 -11.618595
2.368646 -1.038524 -11.503264
2.344102 -0.975493 -11.384068
2.438214 -0.503101 -11.841119
2.412828 -0.441616 -11.717836
2.368137 -0.911088 -11.500792
2.353558 -0.831528 -11.429989
2.422087 -0.362297 -11.7628
2.392343 -0.299653 -11.618348
2.366552 -0.776153 -11.493094
2.377325 -0.704989 -11.545414
2.656302 0.235368 -12.900261
2.435445 -0.208781 -11.827673
2.473505 -0.149367 -12.012507
2.483651 -0.07446 -12.061785
2.465738 -0.008944 -11.974791
2.400326 -2.389323 -11.657116
2.371319 -2.237871 -11.516245
2.353707 -2.12821 -11.430715
2.398965 -2.062146 -11.650507
2.583762 -3.011878 -12.547971
2.51614 -2.856544 -12.219568
2.329129 -1.907687 -11.311353
2.325312 -1.803216 -11.292814
2.442525 -2.656614 -11.862057
2.426017 -2.550137 -11.781884
2.292466 -1.439814 -11.305812
2.31338 -1.393458 -11.408953
2.495533 0.072957 -12.307281
2.51508 0.145968 -12.403683
2.328024 -1.332833 -11.481173
2.299698 -1.236187 -11.341479
2.316149 -1.747732 -11.422606
2.287169 -1.650579 -11.279687
2.325184 -1.197268 -11.467167
2.294298 -1.105844 -11.314846
2.31934 -1.609381 -11.438349
2.305924 -1.533657 -11.372184
2.325846 -0.623421 -11.470434
2.362073 -0.574818 -11.649093
2.296797 -1.021996 -11.327168
2.315466 -0.977905 -11.419241
2.356552 -0.493482 -11.621865
2.365293 -0.439352 -11.664971
2.306801 -0.900687 -11.376509
2.319655 -0.831737 -11.439898
2.376359 -0.360742 -11.71955
2.376556 -0.302102 -11.720518
2.334849 -0.777142 -11.514833
2.337965 -0.703627 -11.530198
2.582737 0.232252 -12.73735
2.402891 -0.209053 -11.850398
2.44314 -0.149727 -12.048892
2.441153 -0.074274 -12.039093
2.470082 -0.009093 -12.181766
2.39344 -2.417895 -11.803788
2.341515 -2.242602 -11.547705
2.352619 -2.158858 -11.60247
2.313232 -2.018018 -11.408223
2.509404 -2.968695 -12.375689
2.469023 -2.844732 -12.176542
2.365247 -1.966075 -11.664745
2.30975 -1.817781 -11.39105
2.406832 -2.656717 -11.869831
2.379529 -2.538464 -11.735182
2.260028 -1.440879 -11.321044
2.261633 -1.382864 -11.329082
2.439785 0.072405 -12.221491
2.452423 0.144481 -12.284799
2.236391 -1.299709 -11.20264
2.268549 -1.237861 -11.363727
2.291338 -1.755124 -11.477883
2.265555 -1.659675 -11.348731
2.314037 -1.209524 -11.591585
2.281111 -1.116094 -11.426651
2.263994 -1.594703 -11.340908
2.275866 -1.536526 -11.400378
2.305869 -0.627401 -11.550672
2.30933 -0.570471 -11.56801
2.267247 -1.024085 -11.357205
2.29724 -0.984861 -11.507448
2.337669 -0.496921 -11.709966
2.313154 -0.436157 -11.587166
2.307498 -0.914566 -11.558831
2.291217 -0.833948 -11.477274
2.332695 -0.359462 -11.685049
2.331927 -0.300906 -11.681203
2.304677 -0.778685 -11.544703
2.300737 -0.70288 -11.524963
2.508406 0.228975 -12.565231
2.333118 -0.206048 -11.687168
2.37493 -0.147745 -11.896616
2.417555 -0.074667 -12.110133
2.380019 -0.008893 -11.922109
2.33674 -2.396269 -11.705313
2.300481 -2.236579 -11.523685
2.295155 -2.137936 -11.497004
2.314694 -2.049791 -11.594879
2.437543 -2.927234 -12.210257
2.384468 -2.788804 -11.944393
2.244352 -1.89376 -11.242519
2.273487 -1.816266 -11.388464
2.368478 -2.653867 -11.864297
2.345632 -2.540095 -11.749854
2.232892 -1.445422 -11.363525
2.221125 -1.378934 -11.303641
2.402577 0.072395 -12.22708
2.397521 0.143414 -12.201349
2.212124 -1.305333 -11.257833
2.248965 -1.246004 -11.445321
2.229431 -1.733908 -11.345912
2.234611 -1.662124 -11.372272
2.233347 -1.185261 -11.365842
2.243192 -1.114383 -11.415943
2.199731 -1.573213 -11.194763
2.220578 -1.522203 -11.300856
2.260448 -0.62448 -11.503764
2.244682 -0.563009 -11.423525
2.241959 -1.028201 -11.409669
2.220093 -0.966391 -11.29839
2.314498 -0.499545 -11.778832
2.304534 -0.441199 -11.728125
2.251445 -0.906042 -11.457946
2.24716 -0.830463 -11.436139
2.300273 -0.359905 -11.70644
2.307345 -0.302302 -11.742425
2.268605 -0.778259 -11.545273
2.226347 -0.690591 -11.330218
2.469669 0.228898 -12.568517
2.310037 -0.207141 -11.756129
2.310405 -0.145937 -11.757998
2.364331 -0.074143 -12.032437
2.369939 -0.008992 -12.060981
2.275521 -2.369296 -11.580473
2.256223 -2.227209 -11.482261
2.257385 -2.135018 -11.488173
2.246454 -2.019886 -11.432541
2.376408 -2.897608 -12.093898
2.378244 -2.824205 -12.103243
2.243376 -1.921982 -11.416879
2.236433 -1.814078 -11.381546
2.343157 -2.665781 -11.924682
2.282335 -2.509475 -11.615149
2.185075 -1.436522 -11.300197
2.218891 -1.399025 -11.475078
2.358587 0.072177 -12.197522
2.38264 0.144746 -12.321914
2.208746 -1.323661 -11.422614
2.161864 -1.216422 -11.180162
2.170874 -1.71469 -11.226755
2.19434 -1.657618 -11.34811
2.2034 -1.1876 -11.394968
2.190858 -1.105353 -11.330105
2.207088 -1.603085 -11.41404
2.220585 -1.545942 -11.483839
2.28093 -0.639963 -11.795916
2.250562 -0.573285 -11.638867
2.222618 -1.035224 -11.494353
2.196965 -0.971234 -11.361686
2.241186 -0.491263 -11.590378
2.252883 -0.438036 -11.65087
2.176484 -0.889532 -11.255769
2.202026 -0.826471 -11.38786
2.259054 -0.358967 -11.682783
2.262745 -0.301081 -11.701871
2.211313 -0.770432 -11.435887
2.236132 -0.704441 -11.564242
2.389753 0.224944 -12.358698
2.470304 0.304342 -12.775273
2.29152 -0.208684 -11.850685
2.325171 -0.149159 -12.024714
2.317058 -0.073794 -11.982755
2.313231 -0.008913 -11.962963
2.239106 -2.36773 -11.579623
2.245917 -2.251602 -11.614844
2.193303 -2.106753 -11.342751
2.208621 -2.016832 -11.421969
2.333492 -2.889641 -12.067739
2.324886 -2.803888 -12.023238
2.18701 -1.902905 -11.310206
2.185675 -1.800548 -11.3033
2.309894 -2.668912 -11.945704
2.265231 -2.529502 -11.714727
2.153327 -1.438087 -11.319052
2.128557 -1.36334 -11.188851
2.290463 0.071204 -12.039916
2.317892 0.143044 -12.184098
2.147528 -1.307371 -11.28857
2.173469 -1.242335 -11.42493
2.168014 -1.739572 -11.396256
2.177506 -1.670972 -11.446151
2.148702 -1.176474 -11.294745
2.165561 -1.109907 -11.383363
2.146019 -1.583433 -11.28064
2.15099 -1.521224 -11.30677
2.207559 -0.629194 -11.604128
2.146182 -0.555361 -11.281498
2.134378 -1.009881 -11.21945
2.140308 -0.961183 -11.250618
2.186115 -0.486787 -11.491405
2.187019 -0.431969 -11.496157
2.166716 -0.899575 -11.389432
2.184057 -0.832719 -11.480589
2.221259 -0.358555 -11.67614
2.209814 -0.298698 -11.615979
2.159112 -0.764167 -11.349461
2.194092 -0.702152 -11.533337
2.377638 0.227351 -12.498155
2.422662 0.303203 -12.734825
2.257467 -0.208841 -11.866468
2.27419 -0.148201 -11.954374
2.242234 -0.072543 -11.7864
2.282872 -0.008936 -12.000014
2.201478 -2.364836 -11.572164
2.190501 -2.230851 -11.514463
2.189609 -2.136539 -11.50977
2.168019 -2.011132 -11.396284
2.284674 -2.874029 -12.009483
2.265119 -2.775103 -11.906696
2.166719 -1.915129 -11.38945
2.135995 -1.78751 -11.227946
2.231234 -2.618886 -11.728579
2.199817 -2.495389 -11.563431
2.100214 -1.425217 -11.224143
2.116275 -1.377315 -11.309977
2.273683 0.071821 -12.15121
2.256715 0.141513 -12.060526
2.12815 -1.316451 -11.373444
2.094207 -1.216318 -11.19204
2.127449 -1.73453 -11.369695
2.125549 -1.657385 -11.359541
2.138291 -1.189639 -11.427637
2.119908 -1.104016 -11.329395
2.11899 -1.588684 -11.324488
2.123334 -1.525864 -11.347705
2.154194 -0.623878 -11.512626
2.181579 -0.573617 -11.658978
2.114964 -1.01682 -11.302972
2.122236 -0.968425 -11.341834
2.196389 -0.496955 -11.738129
2.176031 -0.436724 -11.629333
2.123033 -0.895642 -11.346094
2.119257 -0.821033 -11.325916
2.182677 -0.358005 -11.664849
2.161867 -0.296926 -11.553634
2.122621 -0.763358 -11.343893
2.13477 -0.694176 -11.408819
2.327557 0.226149 -12.439133
2.326473 0.295857 -12.433334
2.195761 -0.206406 -11.734773
2.200853 -0.145733 -11.761989
2.225677 -0.073167 -11.894652
2.238205 -0.008902 -11.961606
2.164471 -2.362549 -11.56755
2.12833 -2.202462 -11.374401
2.373041 -3.175716 -12.68221
2.157522 -2.139153 -11.530413
2.152743 -2.029141 -11.504875
2.250408 -2.876541 -12.026823
2.224281 -2.768981 -11.887191
2.112791 -1.897555 -11.291358
2.127742 -1.809296 -11.37126
2.203468 -2.627971 -11.775963
2.159772 -2.489443 -11.542441
2.07067 -1.428193 -11.253875
2.073999 -1.371919 -11.27197
2.236506 0.071804 -12.15518
2.213877 0.141102 -12.032191
2.078849 -1.307025 -11.298326
2.099576 -1.239417 -11.410974
2.072021 -1.71702 -11.261218
2.08532 -1.65266 -11.333497
2.07375 -1.172636 -11.270617
2.072731 -1.097135 -11.265079
2.088919 -1.591801 -11.353058
2.086138 -1.523698 -11.337944
2.117439 -0.623281 -11.508061
2.099048 -0.56096 -11.408106
2.074024 -1.013476 -11.272106
2.080653 -0.965007 -11.308135
2.105104 -0.484106 -11.441021
2.130441 -0.434581 -11.578726
2.090728 -0.896466 -11.362892
2.089938 -0.822941 -11.358596
2.135341 -0.35598 -11.605354
2.148107 -0.29987 -11.674738
2.104014 -0.769065 -11.435098
2.119809 -0.700606 -11.520943
2.242308 0.221436 -12.186709
2.299817 0.297259 -12.499266
2.166095 -0.206953 -11.772498
2.174016 -0.146315 -11.815551
2.376219 0.387661 -12.9145
2.185895 -0.073037 -11.880115
2.164552 -0.00875 -11.764115
2.122027 -2.354173 -11.532995
2.126032 -2.236134 -11.554761
2.272146 -3.090518 -12.34888
2.094332 -2.110525 -11.382474
2.078462 -1.991226 -11.296226
2.229541 -2.896565 -12.117325
2.169471 -2.745003 -11.790849
2.098246 -1.91537 -11.403749
2.075954 -1.794184 -11.282592
2.165488 -2.624992 -11.7692
2.123492 -2.48773 -11.540956
2.051112 -1.438286 -11.339641
2.030843 -1.365765 -11.227583
2.164358 0.070646 -11.965726
2.200897 0.142613 -12.167733
2.066598 -1.320982 -11.425256
2.026937 -1.216483 -11.205991
2.026079 -1.706936 -11.201245
2.045706 -1.648291 -11.309755
2.043216 -1.17463 -11.29599
2.052036 -1.104287 -11.344751
2.042974 -1.582741 -11.294653
2.02695 -1.505146 -11.206061
2.077828 -0.621817 -11.487341
2.056859 -0.558849 -11.371413
2.041105 -1.014015 -11.284316
2.067405 -0.974847 -11.429722
2.092745 -0.489286 -11.569814
2.0849 -0.43238 -11.526438
2.048243 -0.892889 -11.323779
2.049957 -0.820653 -11.333254
2.096596 -0.355347 -11.591102
2.121401 -0.301079 -11.728239
2.062834 -0.766581 -11.404445
2.071562 -0.696073 -11.452699
2.221125 0.223 -12.279566
2.263467 0.297438 -12.513655
2.134044 -0.20729 -11.798133
2.13065 -0.145786 -11.77937
2.299342 0.381373 -12.711992
2.134894 -0.072522 -11.802834
2.159807 -0.008877 -11.940567
2.10395 -2.373027 -11.631758
2.094583 -2.23978 -11.57997
2.232051 -3.086589 -12.339968
2.059325 -2.109841 -11.385046
2.057413 -2.003917 -11.374478
2.158835 -2.851459 -11.935192
2.154461 -2.771453 -11.911013
2.055072 -1.907231 -11.361536
2.054668 -1.805389 -11.359302
2.118607 -2.610973 -11.712789
2.128467 -2.535125 -11.767303
2.011956 -1.434759 -11.317952
2.012247 -1.376212 -11.319591
2.139139 0.071007 -12.033399
2.130065 0.140364 -11.982354
1.997941 -1.298757 -11.239114
2.002398 -1.222139 -11.264182
2.00894 -1.721204 -11.300985
1.999821 -1.63865 -11.249684
2.011689 -1.176121 -11.316449
2.018301 -1.104554 -11.353642
1.994084 -1.571067 -11.217415
2.017294 -1.523383 -11.347978
2.028076 -0.617223 -11.408632
2.019879 -0.55811 -11.362523
2.004019 -1.012478 -11.273305
2.024521 -0.970817 -11.388631
2.059808 -0.489754 -11.587136
2.060074 -0.434478 -11.588632
2.005383 -0.889033 -11.280973
2.013598 -0.81977 -11.327186
2.057786 -0.354685 -11.575759
2.090255 -0.30169 -11.758414
2.024938 -0.765262 -11.390977
2.042668 -0.698006 -11.490716
2.157809 0.220318 -12.138427
2.200564 0.294076 -12.378935
2.09861 -0.207306 -11.805412
2.089144 -0.145371 -11.75216
2.266195 0.38225 -12.748133
2.126702 -0.073469 -11.963439
2.111402 -0.008825 -11.877371
2.047137 -2.348112 -11.515859
2.044082 -2.222852 -11.498671
2.189898 -3.079662 -12.318936
2.024672 -2.109522 -11.389482
2.009053 -1.990005 -11.30162
2.13456 -2.867216 -12.007639
2.132574 -2.789827 -11.996469
2.0074 -1.894587 -11.292319
2.003938 -1.790679 -11.272847
2.073022 -2.598127 -11.661468
2.064382 -2.5005 -11.612864
1.962562 -1.423696 -11.236653
1.961611 -1.364741 -11.231208
2.083937 0.070369 -11.931587
2.106607 0.141215 -12.061387
1.977107 -1.307401 -11.319929
1.956119 -1.214505 -11.199767
1.962017 -1.710022 -11.233531
1.959899 -1.633662 -11.221408
1.963104 -1.167529 -11.239756
1.987146 -1.106279 -11.377413
1.952065 -1.564513 -11.176554
1.959017 -1.504915 -11.216359
2.015714 -0.624051 -11.540976
1.993938 -0.560453 -11.416296
1.977166 -1.016156 -11.32027
1.973637 -0.962755 -11.300064
2.018137 -0.488129 -11.554847
2.051071 -0.440047 -11.743412
1.993351 -0.898955 -11.412938
1.98414 -0.821723 -11.3602
2.009442 -0.352331 -11.505066
2.010689 -0.295216 -11.512202
1.982502 -0.762159 -11.35082
1.996169 -0.693892 -11.429072
2.158245 0.224166 -12.357039
2.178099 0.296099 -12.470715
2.046021 -0.2056 -11.714496
2.080444 -0.147265 -11.911586
2.204519 0.378266 -12.621981
2.04787 -0.071967 -11.725087
2.097617 -0.008918 -12.009912
1.991554 -2.323792 -11.402646
1.990448 -2.201895 -11.396317
2.161152 -3.091704 -12.373679
2.000513 -2.120334 -11.453942
1.988003 -2.00315 -11.38232
2.062095 -2.817696 -11.80653
2.068872 -2.753216 -11.845331
1.973965 -1.895193 -11.301938
1.979828 -1.799677 -11.33551
2.039478 -2.600214 -11.677039
2.008722 -2.475086 -11.500944
1.931184 -1.425555 -11.257199
1.946595 -1.378096 -11.347031
2.04237 0.070177 -11.90532
2.065214 0.140873 -12.038482
1.934147 -1.301471 -11.274473
1.950353 -1.232206 -11.368937
1.937896 -1.718683 -11.296327
1.901671 -1.612985 -11.08516
1.935504 -1.171345 -11.282381
1.934141 -1.095694 -11.274435
1.924767 -1.569746 -11.219792
1.925676 -1.5053 -11.225091
1.964294 -0.618819 -11.450204
1.951051 -0.558037 -11.373009
1.93746 -1.013249 -11.293783
1.933038 -0.959523 -11.268007
1.975227 -0.486147 -11.513933
1.977457 -0.43171 -11.526935
1.947739 -0.893822 -11.3537
1.952654 -0.822896 -11.382354
1.999245 -0.356704 -11.653936
1.990502 -0.297389 -11.602972
1.977564 -0.773622 -11.527555
1.935896 -0.684767 -11.284666
2.098032 0.221742 -12.229785
2.122878 0.293664 -12.374617
1.99668 -0.204168 -11.638985
1.996452 -0.143803 -11.637657
2.145388 0.37459 -12.50583
2.227336 0.453525 -12.98352
2.021902 -0.072303 -11.786009
2.054169 -0.008887 -11.9741
1.964929 -2.33302 -11.453904
1.962579 -2.209222 -11.440208
2.097294 -3.053081 -12.225482
1.97633 -2.131516 -11.520363
1.969107 -2.018979 -11.478258
2.051308 -2.852219 -11.957425
2.021675 -2.73769 -11.784683
1.943875 -1.899105 -11.331179
1.955727 -1.809013 -11.400265
1.992347 -2.584767 -11.61373
1.988247 -2.492912 -11.589826
1.9119 -1.436582 -11.350101
1.893022 -1.364158 -11.238029
2.01757 0.070566 -11.977418
2.051291 0.142428 -12.177605
1.886002 -1.291791 -11.196353
1.899739 -1.221713 -11.277905
1.912926 -1.726906 -11.35619
1.891639 -1.633196 -11.229815
1.878962 -1.157481 -11.154561
1.912607 -1.102889 -11.354295
1.897128 -1.5749 -11.262404
1.883251 -1.498488 -11.18002
1.931456 -0.619366 -11.466192
1.929493 -0.561749 -11.454543
1.916907 -1.020445 -11.379821
1.895344 -0.957653 -11.251813
1.933758 -0.48446 -11.479862
1.961433 -0.435877 -11.644154
1.902316 -0.888604 -11.293206
1.912552 -0.820423 -11.353966
1.957499 -0.355507 -11.620798
1.960276 -0.298115 -11.637284
1.904091 -0.758213 -11.303741
1.924454 -0.692905 -11.424629
2.024215 0.21777 -12.016866
2.081284 0.293064 -12.355655
1.981535 -0.206246 -11.763494
1.998832 -0.146552 -11.866174
2.106813 0.374439 -12.507214
2.142675 0.444096 -12.720106
1.974468 -0.071871 -11.721539
1.997803 -0.008798 -11.860065
1.930881 -2.333632 -11.46278
1.913548 -2.192586 -11.359885
2.040936 -3.024221 -12.11613
1.928862 -2.117559 -11.450794
1.900379 -1.983389 -11.281706
2.007896 -2.841831 -11.919986
1.989527 -2.742383 -11.810937
1.892474 -1.881983 -11.234777
1.890002 -1.779512 -11.220102
1.952132 -2.577928 -11.588941
1.946798 -2.484636 -11.557274
1.865941 -1.427616 -11.284939
1.88025 -1.379662 -11.371478
1.975063 0.070339 -11.944897
2.003166 0.141623 -12.114856
1.847761 -1.288678 -11.174993
1.850702 -1.211882 -11.19278
1.857903 -1.707819 -11.236331
1.841448 -1.618854 -11.136811
1.84535 -1.157506 -11.16041
1.872281 -1.099324 -11.323288
1.878442 -1.587825 -11.360548
1.889608 -1.530964 -11.428075
1.879398 -0.613662 -11.366325
1.914191 -0.567457 -11.576748
1.891215 -1.025127 -11.437793
1.888989 -0.971847 -11.424332
1.911242 -0.487551 -11.558913
1.896394 -0.429108 -11.46912
1.869599 -0.889247 -11.307067
1.858399 -0.81173 -11.239326
1.920294 -0.35511 -11.613661
1.911993 -0.296075 -11.563459
1.874654 -0.760104 -11.337635
1.884781 -0.690996 -11.398884
2.007878 0.219951 -12.143356
2.060814 0.295473 -12.463504
1.931855 -0.204742 -11.683582
1.955856 -0.146016 -11.828736
2.031758 0.367685 -12.287776
2.10595 0.444444 -12.73648
1.929393 -0.071511 -11.668693
1.943751 -0.008716 -11.755526
1.892242 -2.328637 -11.444005
1.884267 -2.198406 -11.395774
1.990578 -3.00339 -12.03873
1.877973 -2.099288 -11.357708
1.865934 -1.982953 -11.2849
1.967334 -2.835197 -11.898149
1.966827 -2.760531 -11.895085
1.884205 -1.907928 -11.395399
1.860442 -1.783623 -11.251686
1.952491 -2.62542 -11.80838
1.910682 -2.483011 -11.55553
1.826777 -1.423624 -11.258946
1.810711 -1.353326 -11.159923
1.947065 0.070631 -12.000313
1.937971 0.139559 -11.944264
1.819952 -1.29287 -11.216881
1.806931 -1.205206 -11.136628
1.817126 -1.701374 -11.199461
1.845267 -1.652356 -11.372903
1.827571 -1.167656 -11.263836
1.859663 -1.112205 -11.461627
1.813578 -1.561482 -11.177592
1.832174 -1.512016 -11.29221
1.857751 -0.617866 -11.449848
1.857753 -0.56096 -11.449858
1.832825 -1.011939 -11.296218
1.828516 -0.958216 -11.26966
1.860831 -0.483512 -11.468831
1.866967 -0.4303 -11.506647
1.829636 -0.88641 -11.276567
1.829788 -0.814085 -11.277501
1.868279 -0.351911 -11.514733
1.857055 -0.292911 -11.445559
1.865801 -0.770572 -11.499459
1.837477 -0.686171 -11.32489
1.985598 0.221553 -12.237803
1.968001 0.287409 -12.12935
1.911658 -0.206366 -11.782088
1.896296 -0.1442 -11.687407
2.03991 0.37602 -12.572543
2.071666 0.445333 -12.768265
1.932894 -0.072972 -11.912976
1.929534 -0.008813 -11.892262
1.85736 -2.328184 -11.447434
1.856225 -2.205933 -11.440437
1.939862 -2.981257 -11.955916
1.827261 -2.080556 -11.261925
1.825216 -1.975725 -11.249323
1.939847 -2.847534 -11.955824
1.905752 -2.724514 -11.745688
1.852786 -1.910977 -11.419245
1.830092 -1.787129 -11.279373
1.905298 -2.60957 -11.742892
1.868416 -2.473204 -11.515575
1.794013 -1.424577 -11.271946
1.784477 -1.358987 -11.212035
1.900416 0.070244 -11.940489
1.912717 0.14035 -12.017776
1.776931 -1.286223 -11.164622
1.794361 -1.219496 -11.274134
1.802728 -1.719871 -11.326704
1.802783 -1.644897 -11.327053
1.794076 -1.167971 -11.272346
1.796482 -1.094774 -11.287464
1.761002 -1.544939 -11.064537
1.793737 -1.50834 -11.270215
1.821197 -0.617184 -11.442751
1.812821 -0.557762 -11.390119
1.826277 -1.027426 -11.474669
1.804943 -0.963782 -11.340628
1.834411 -0.485677 -11.525774
1.818356 -0.427036 -11.424901
1.806728 -0.891895 -11.351838
1.790131 -0.81153 -11.247558
1.81394 -0.348149 -11.397153
1.853307 -0.297858 -11.644502
1.821581 -0.766562 -11.44516
1.826295 -0.694916 -11.474779
1.907724 0.216896 -11.986406
1.939941 0.288679 -12.188826
1.856326 -0.20419 -11.663469
1.858498 -0.144003 -11.677113
1.992577 0.374253 -12.519547
2.020035 0.442461 -12.692065
1.887035 -0.07259 -11.856413
1.881695 -0.008758 -11.822865
1.827731 -2.334449 -11.483802
1.833958 -2.220762 -11.522928
1.911614 -2.993503 -12.01085
1.815361 -2.106166 -11.406078
1.81117 -1.997663 -11.379745
1.893818 -2.832635 -11.899033
1.882065 -2.741625 -11.825186
1.799101 -1.89076 -11.303916
1.799311 -1.790359 -11.305237
1.843307 -2.572495 -11.581668
1.829272 -2.467263 -11.493482
1.754305 -1.419961 -11.240762
1.768188 -1.372599 -11.32972
1.861455 0.070134 -11.92733
1.887745 0.141194 -12.095783
1.75115 -1.292051 -11.220549
1.758508 -1.21822 -11.267691
1.764813 -1.716229 -11.308092
1.758457 -1.635452 -11.267366
1.758478 -1.166914 -11.267498
1.771406 -1.100349 -11.350339
1.759152 -1.573134 -11.271819
1.729949 -1.482807 -11.084702
1.758731 -0.60753 -11.269122
1.790736 -0.561612 -11.474194
1.74577 -1.00111 -11.186072
1.764418 -0.960346 -11.305558
1.811341 -0.488835 -11.606219
1.779512 -0.425988 -11.402276
1.750516 -0.880841 -11.216486
1.778034 -0.821619 -11.392804
1.79666 -0.351495 -11.512154
1.825038 -0.298982 -11.693988
1.777682 -0.762542 -11.390553
1.781815 -0.691091 -11.417033
1.887455 0.218738 -12.093926
1.906222 0.289142 -12.214171
1.827405 -0.204892 -11.70915
1.80001 -0.142166 -11.533616
1.924964 0.368539 -12.334267
1.955897 0.43669 -12.53247
1.845331 -0.072357 -11.824015
1.844742 -0.008751 -11.820242
1.793858 -2.335453 -11.494202
1.794905 -2.215465 -11.50091
1.881702 -3.003593 -12.057063
1.782502 -2.107999 -11.421433
1.771618 -1.991792 -11.351698
1.850261 -2.820955 -11.855606
1.828796 -2.715498 -11.718065
1.779006 -1.905763 -11.399031
1.776844 -1.802162 -11.385181
1.808651 -2.572896 -11.588984
1.802883 -2.478652 -11.552028
1.730062 -1.42794 -11.309194
1.739258 -1.376753 -11.369307
1.829731 0.070297 -11.960718
1.841837 0.140476 -12.039852
1.719023 -1.293347 -11.237034
1.70024 -1.201071 -11.114253
1.706294 -1.692027 -11.153828
1.723659 -1.634687 -11.267342
1.730505 -1.170986 -11.312088
1.724749 -1.092484 -11.274464
1.723788 -1.571894 -11.268182
1.711347 -1.495774 -11.186854
1.725524 -0.607808 -11.279526
1.732165 -0.553951 -11.322944
1.750968 -1.023882 -11.445851
1.706963 -0.947386 -11.158197
1.74962 -0.481485 -11.43704
1.760306 -0.429696 -11.506894
1.748051 -0.896938 -11.426782
1.737884 -0.818895 -11.360327
1.759933 -0.351096 -11.504455
1.778262 -0.297061 -11.624269
1.735605 -0.759167 -11.345425
1.740547 -0.688391 -11.377731
1.861258 0.219954 -12.166806
1.874368 0.289914 -12.252503
1.782205 -0.203763 -11.650042
1.794879 -0.144555 -11.732898
1.890253 0.369027 -12.356343
1.93495 0.440528 -12.648519
1.80889 -0.072326 -11.824483
1.813961 -0.008775 -11.857633
1.740429 -2.310555 -11.376965
1.742872 -2.193641 -11.392928
1.839705 -2.994438 -12.025915
1.740095 -2.09841 -11.374777
1.753733 -2.010547 -11.463927
1.802259 -2.801929 -11.781134
1.783749 -2.700815 -11.660139
1.726093 -1.885527 -11.28325
1.73808 -1.797593 -11.361609
1.770799 -2.568702 -11.575483
1.763613 -2.472454 -11.528514
1.70225 -1.433246 -11.356398
1.690817 -1.36533 -11.280125
1.777028 0.069646 -11.855275
1.791664 0.139398 -11.952915
1.680429 -1.289741 -11.210822
1.680665 -1.211123 -11.212394
1.69845 -1.718127 -11.331049
1.701948 -1.646563 -11.354383
1.688402 -1.165478 -11.264016
1.715051 -1.108193 -11.441798
1.696462 -1.578092 -11.317783
1.693383 -1.509845 -11.297247
1.694294 -0.608812 -11.303323
1.726035 -0.563094 -11.515081
1.684504 -1.00483 -11.238006
1.697651 -0.961171 -11.325721
1.724803 -0.484203 -11.506861
1.721476 -0.42867 -11.484666
1.6735 -0.875958 -11.164598
1.688002 -0.81139 -11.261344
1.740877 -0.354281 -11.614097
1.739112 -0.296365 -11.602323
1.673247 -0.746613 -11.162907
1.711063 -0.690342 -11.415193
1.819048 0.219289 -12.135605
1.831776 0.289025 -12.22052
1.759356 -0.205197 -11.737375
1.743677 -0.143256 -11.632777
1.843674 0.367174 -12.299895
1.903398 0.442062 -12.698343
1.767172 -0.07208 -11.78952
1.75181 -0.008645 -11.687037
1.729232 -2.341866 -11.536407
1.720228 -2.208692 -11.476336
1.882717 -3.276668 -12.560369
1.789258 -2.970907 -11.936863
1.701322 -2.092922 -11.350212
1.704192 -1.99305 -11.369355
1.782085 -2.826294 -11.889009
1.761091 -2.720145 -11.748955
1.678839 -1.870798 -11.200218
1.707945 -1.801957 -11.394391
1.742153 -2.577981 -11.622607
1.730794 -2.475252 -11.546831
1.633707 -1.403786 -11.127953
1.662406 -1.369959 -11.323439
1.747111 0.06988 -11.900401
1.757012 0.13951 -11.967845
1.626557 -1.274034 -11.079249
1.638144 -1.204728 -11.158176
1.668233 -1.72222 -11.363126
1.649669 -1.628765 -11.236681
1.662404 -1.171101 -11.323425
1.655206 -1.09149 -11.274392
1.642604 -1.559375 -11.188554
1.661132 -1.511509 -11.314761
1.673209 -0.613584 -11.397023
1.691238 -0.563074 -11.519824
1.669528 -1.016352 -11.371951
1.649493 -0.953086 -11.235481
1.690383 -0.484287 -11.514003
1.668475 -0.424005 -11.364774
1.664339 -0.889055 -11.336604
1.658148 -0.81341 -11.294433
1.699275 -0.352917 -11.574574
1.701299 -0.295876 -11.588357
1.671606 -0.7612 -11.386099
1.66504 -0.685571 -11.34138
1.769899 0.217746 -12.055619
1.784557 0.287358 -12.155464
1.699759 -0.202317 -11.577868
1.73498 -0.145469 -11.817774
1.828036 0.371537 -12.451622
1.854626 0.439581 -12.63274
1.736133 -0.072268 -11.825626
1.727787 -0.008701 -11.768782
1.686901 -2.33146 -11.490282
1.667201 -2.184574 -11.356097
1.828847 -3.248286 -12.457143
1.772866 -3.004149 -12.07583
1.648382 -2.069445 -11.227916
1.671513 -1.994983 -11.385472
1.71859 -2.781575 -11.706131
1.7372 -2.738354 -11.832895
1.655437 -1.882608 -11.275968
1.648427 -1.774883 -11.228219
1.690685 -2.553206 -11.51606
1.703686 -2.486526 -11.604612
1.61327 -1.415308 -11.224201
1.589634 -1.337471 -11.05975
1.700977 0.069462 -11.834413
1.715532 0.139074 -11.935678
1.624627 -1.299219 -11.303217
1.625303 -1.22036 -11.307915
1.609727 -1.696685 -11.199551
1.598663 -1.611519 -11.122573
1.617274 -1.16321 -11.252058
1.622972 -1.092687 -11.291699
1.609942 -1.560432 -11.201044
1.627747 -1.512203 -11.324917
1.635927 -0.612498 -11.381829
1.643451 -0.558643 -11.43418
1.618683 -1.006072 -11.261862
1.611262 -0.950527 -11.210229
1.640874 -0.479965 -11.416248
1.655632 -0.429568 -11.518929
1.639789 -0.894318 -11.408703
1.625267 -0.814006 -11.307662
1.66116 -0.352239 -11.55739
1.677284 -0.297819 -11.669572
1.600322 -0.744028 -11.134115
1.63261 -0.686321 -11.358752
1.733346 0.217723 -12.059621
1.761796 0.289644 -12.257557
1.684713 -0.204733 -11.721257
1.693114 -0.144937 -11.779703
1.775108 0.368348 -12.350172
1.785123 0.431984 -12.419855
1.662031 -0.070635 -11.563448
1.716318 -0.008825 -11.941144
1.65181 -2.330855 -11.492338
1.638913 -2.19256 -11.402609
1.78456 -3.236122 -12.415935
1.732943 -2.998104 -12.05681
1.608579 -2.061841 -11.191564
1.626966 -1.982551 -11.319484
1.686923 -2.787601 -11.736632
1.675112 -2.695879 -11.654458
1.613304 -1.873183 -11.224436
1.623549 -1.78477 -11.295712
1.654676 -2.551249 -11.512278
1.647852 -2.455491 -11.464799
1.567069 -1.404248 -11.141271
1.586629 -1.363561 -11.28033
1.68099 0.070117 -11.9512
1.671496 0.138409 -11.883707
1.592532 -1.300854 -11.322297
1.564175 -1.199641 -11.120696
1.566754 -1.686792 -11.139029
1.594757 -1.642044 -11.338118
1.582891 -1.162887 -11.253759
1.570453 -1.079994 -11.165326
1.577501 -1.561768 -11.215437
1.593972 -1.512573 -11.332541
1.602364 -0.612793 -11.392203
1.584571 -0.550175 -11.265698
1.579834 -1.002976 -11.232019
1.605768 -0.967594 -11.416403
1.613716 -0.48214 -11.472909
1.637088 -0.433863 -11.639079
1.600328 -0.891507 -11.37773
1.58245 -0.809552 -11.250618
1.614402 -0.349663 -11.477789
1.646539 -0.298627 -11.706269
1.591278 -0.755683 -11.313383
1.584307 -0.680293 -11.263824
1.693279 0.21725 -12.038573
1.702137 0.285835 -12.101549
1.619207 -0.200991 -11.511949
1.636772 -0.143118 -11.63683
1.733701 0.367468 -12.325963
1.764384 0.436118 -12.544102
1.66311 -0.072196 -11.824083
1.646358 -0.008647 -11.704983
1.608849 -2.318902 -11.438306
1.586433 -2.167851 -11.27894
1.740899 -3.224626 -12.377136
1.693001 -2.991794 -12.036594
1.598253 -2.092524 -11.362978
1.586807 -1.975068 -11.281594
1.662829 -2.806694 -11.822088
1.659569 -2.728122 -11.798906
1.590034 -1.885743 -11.304543
1.567071 -1.759615 -11.141284
1.621998 -2.554478 -11.531793
1.632252 -2.484389 -11.604696
1.53665 -1.407167 -11.169111
1.54177 -1.354047 -11.206324
1.63031 0.069493 -11.849875
1.65273 0.139854 -12.012839
1.554963 -1.298002 -11.302217
1.536716 -1.204409 -11.169588
1.571968 -1.729496 -11.425822
1.546629 -1.62739 -11.241645
1.549456 -1.16327 -11.262189
1.553221 -1.091553 -11.28956
1.562106 -1.580418 -11.354136
1.53362 -1.487195 -11.147084
1.557186 -0.608567 -11.318377
1.57416 -0.558539 -11.441751
1.531617 -0.993674 -11.132526
1.555703 -0.95797 -11.307595
1.57019 -0.479417 -11.412896
1.562286 -0.423113 -11.355448
1.553501 -0.884387 -11.291596
1.555765 -0.813343 -11.308047
1.575301 -0.348671 -11.450049
1.604078 -0.297302 -11.659211
1.541391 -0.748035 -11.203571
1.566667 -0.687461 -11.387292
1.663068 0.21805 -12.087976
1.684978 0.289155 -12.247231
1.587198 -0.201336 -11.536517
1.608119 -0.143694 -11.688585
1.690142 0.366087 -12.284769
1.711699 0.432368 -12.441451
1.602644 -0.071096 -11.648785
1.618277 -0.008685 -11.762416
1.563781 -2.30334 -11.366314
1.574898 -2.199253 -11.44712
1.69957 -3.217064 -12.35329
1.659019 -2.995994 -12.058551
1.550028 -2.073859 -11.266348
1.546846 -1.967524 -11.243217
1.637639 -2.824754 -11.90315
1.598934 -2.68605 -11.621821
1.547069 -1.874997 -11.244843
1.537421 -1.764155 -11.174719
1.583829 -2.549031 -11.512031
1.611591 -2.506697 -11.713815
1.5198 -1.422936 -11.298913
1.524378 -1.368785 -11.332949
1.610771 0.0702 -11.975237
1.597351 0.138198 -11.875462
1.512852 -1.291161 -11.247256
1.490957 -1.194742 -11.084478
1.507537 -1.69579 -11.207747
1.512916 -1.627603 -11.247733
1.504161 -1.15458 -11.182642
1.522097 -1.09366 -11.315989
1.508428 -1.560323 -11.214369
1.502989 -1.490165 -11.17393
1.538675 -0.614813 -11.439241
1.532872 -0.556082 -11.396098
1.512294 -1.003133 -11.243107
1.518591 -0.956081 -11.289926
1.555225 -0.485493 -11.562283
1.549598 -0.429084 -11.520442
1.519578 -0.884468 -11.29726
1.49863 -0.801037 -11.141528
1.544986 -0.349627 -11.486156
1.540832 -0.291982 -11.455273
1.517009 -0.752706 -11.278165
1.55005 -0.695418 -11.523809
1.621372 0.217349 -12.054047
1.661336 0.291489 -12.351156
1.560266 -0.202356 -11.599759
1.584977 -0.144801 -11.78347
1.67779 0.371558 -12.473482
1.688459 0.436059 -12.552806
1.584596 -0.071871 -11.78064
1.601305 -0.008787 -11.90486
1.539117 -2.317832 -11.442523
1.526665 -2.17969 -11.349953
1.670321 -3.232578 -12.417957
1.609917 -2.972496 -11.968884
1.508245 -2.063194 -11.21301
1.493034 -1.941651 -11.099924
1.573023 -2.774123 -11.694598
1.577898 -2.710134 -11.730841
1.521045 -1.884783 -11.308167
1.493397 -1.752053 -11.102617
1.563248 -2.572309 -11.621925
1.565885 -2.490206 -11.641529
1.493729 -1.430611 -11.364409
1.447681 -1.329738 -11.014073
1.570546 0.070017 -11.948843
1.560107 0.138072 -11.869417
1.473215 -1.286177 -11.208341
1.48477 -1.21708 -11.296251
1.477654 -1.700309 -11.242116
1.478745 -1.627338 -11.250413
1.470619 -1.15473 -11.188585
1.491812 -1.09649 -11.349828
1.461477 -1.546439 -11.11904
1.489115 -1.510281 -11.32931
1.491264 -0.609539 -11.345661
1.504459 -0.558295 -11.446048
1.485575 -1.008017 -11.302377
1.490119 -0.959678 -11.336946
1.505944 -0.480894 -11.457347
1.503574 -0.425892 -11.439313
1.483115 -0.883049 -11.28366
1.493358 -0.816531 -11.361587
1.514838 -0.350669 -11.525014
1.510717 -0.292843 -11.493656
1.466412 -0.744293 -11.156584
1.489945 -0.683787 -11.335619
1.587528 0.217694 -12.078038
1.597324 0.286687 -12.152571
1.537532 -0.203983 -11.697668
1.515601 -0.141639 -11.530816
1.633876 0.370134 -12.430661
1.664135 0.439637 -12.660872
1.548172 -0.07183 -11.778617
1.555197 -0.00873 -11.832064
1.524742 -2.348862 -11.600359
1.499953 -2.190681 -11.411761
1.62835 -3.223647 -12.388618
1.578023 -2.980451 -12.005731
1.490569 -2.085792 -11.340371
1.484921 -1.975402 -11.297401
1.573703 -2.838993 -11.972862
1.51265 -2.65767 -11.508364
1.497872 -1.898649 -11.395932
1.477247 -1.772866 -11.239013
1.527123 -2.570514 -11.618476
1.511749 -2.459269 -11.501512
1.453968 -1.425238 -11.326163
1.431203 -1.34548 -11.148827
1.516771 0.069208 -11.815385
1.545259 0.13997 -12.037306
1.427572 -1.275602 -11.120541
1.435899 -1.204665 -11.18541
1.447095 -1.704255 -11.272621
1.450842 -1.634133 -11.301812
1.438286 -1.155868 -11.204
1.429851 -1.075633 -11.138292
1.44251 -1.56222 -11.236907
1.440024 -1.494796 -11.217544
1.457893 -0.609895 -11.35674
1.459371 -0.554283 -11.368249
1.445022 -1.00353 -11.256472
1.436452 -0.946844 -11.189716
1.469274 -0.480204 -11.445392
1.476329 -0.427997 -11.500351
1.461863 -0.890839 -11.387661
1.442168 -0.807063 -11.234244
1.475009 -0.349469 -11.490067
1.494626 -0.296529 -11.642882
1.467832 -0.762512 -11.434158
1.460439 -0.685988 -11.376572
1.56353 0.219439 -12.179633
1.568349 0.288098 -12.217172
1.496705 -0.20323 -11.659076
1.497879 -0.143271 -11.668221
1.578627 0.366018 -12.297238
1.592278 0.430533 -12.403569
1.504586 -0.071447 -11.72047
1.515039 -0.008704 -11.801894
1.457064 -2.297325 -11.350278
1.461482 -2.184629 -11.384694
1.587319 -3.216226 -12.36494
1.52975 -2.957138 -11.91649
1.459437 -2.090194 -11.368762
1.455063 -1.981147 -11.334693
1.51482 -2.796952 -11.800183
1.513275 -2.721216 -11.788154
1.455488 -1.888258 -11.338002
1.437598 -1.765806 -11.198642
1.511314 -2.603654 -11.772877
1.472775 -2.45214 -11.472664
1.410338 -1.415738 -11.254974
1.406077 -1.353668 -11.220966
1.49944 0.070063 -11.96603
1.51036 0.140101 -12.053176
1.394276 -1.275831 -11.126786
1.409729 -1.21117 -11.250113
1.398424 -1.686566 -11.159889
1.415351 -1.63252 -11.294978
1.384521 -1.139436 -11.048944
1.410903 -1.08692 -11.259479
1.40116 -1.553954 -11.181726
1.408312 -1.497056 -11.2388
1.427453 -0.611531 -11.391551
1.428281 -0.555529 -11.398159
1.427375 -1.015128 -11.390928
1.413483 -0.954124 -11.280065
1.429498 -0.478447 -11.407874
1.464167 -0.434685 -11.684541
1.391963 -0.868655 -11.108335
1.410334 -0.80824 -11.254934
1.460601 -0.354383 -11.656089
1.447441 -0.294078 -11.551065
1.425652 -0.758423 -11.377181
1.426396 -0.686121 -11.38312
1.500419 0.215649 -11.973846
1.505047 0.283123 -12.010779
1.446267 -0.201107 -11.541692
1.479694 -0.144937 -11.808457
1.548625 0.367702 -12.358552
1.564052 0.433078 -12.481659
1.486473 -0.072286 -11.862556
1.469267 -0.008644 -11.725245
1.450507 -2.342021 -11.575534
1.440521 -2.205114 -11.495846
1.551314 -3.218913 -12.380004
1.500843 -2.971074 -11.977228
1.448702 -2.124749 -11.56113
1.418161 -1.977368 -11.317402
1.470075 -2.779655 -11.731696
1.465691 -2.699074 -11.696706
1.417471 -1.883189 -11.311892
1.397274 -1.757576 -11.150713
1.448512 -2.555512 -11.559615
1.446529 -2.466397 -11.543783
1.378031 -1.417428 -11.272621
1.397743 -1.378838 -11.43387
1.462413 0.070019 -11.962889
1.459551 0.138728 -11.939475
1.382495 -1.296256 -11.309139
1.392311 -1.225712 -11.389436
1.394161 -1.722901 -11.404571
1.37703 -1.627497 -11.264434
1.365193 -1.151243 -11.167603
1.378855 -1.088433 -11.279366
1.392856 -1.582849 -11.393899
1.394054 -1.518454 -11.403698
1.388284 -0.609422 -11.3565
1.383362 -0.55133 -11.316231
1.369656 -0.998107 -11.204114
1.380941 -0.955151 -11.296426
1.390819 -0.476984 -11.377234
1.419262 -0.431747 -11.609906
1.380696 -0.882877 -11.29442
1.391349 -0.817029 -11.381566
1.410425 -0.35065 -11.537616
1.412413 -0.29404 -11.55388
1.385462 -0.755223 -11.33341
1.380301 -0.680326 -11.291197
1.487285 0.219034 -12.166349
1.480132 0.285304 -12.107831
1.424858 -0.203017 -11.655683
1.433538 -0.14388 -11.726686
1.495771 0.363913 -12.235766
1.531508 0.434527 -12.528101
1.432161 -0.071363 -11.715419
1.434156 -0.008646 -11.731739
1.410468 -2.333549 -11.537966
1.382595 -2.168649 -11.30996
1.523942 -3.240116 -12.466207
1.465918 -2.97352 -11.991563
1.374083 -2.06502 -11.240328
1.37988 -1.971451 -11.28775
1.439916 -2.789788 -11.778859
1.446819 -2.730041 -11.835324
1.377141 -1.874739 -11.265342
1.356688 -1.748621 -11.098037
1.412424 -2.55331 -11.553969
1.407757 -2.459497 -11.515787
1.353763 -1.427697 -11.358418
1.34097 -1.3563 -11.25108
1.427608 0.070082 -11.977994
1.419997 0.138383 -11.914134
1.331293 -1.279829 -11.16989
1.342433 -1.211703 -11.26336
1.353726 -1.715257 -11.358111
1.339126 -1.622742 -11.23561
1.338921 -1.157655 -11.233891
1.338715 -1.083483 -11.232162
1.335948 -1.556589 -11.208945
1.333733 -1.489505 -11.190364
1.364739 -0.614243 -11.450508
1.375435 -0.56204 -11.540251
1.352396 -1.010463 -11.346949
1.362719 -0.966394 -11.433559
1.365744 -0.480234 -11.458942
1.365885 -0.426022 -11.460129
1.344265 -0.88133 -11.278728
1.360219 -0.818957 -11.412587
1.374669 -0.350407 -11.533825
1.381072 -0.294789 -11.587547
1.352092 -0.75568 -11.344396
1.368084 -0.691365 -11.478578
1.443368 0.217945 -12.110229
1.460626 0.288668 -12.255031
1.384275 -0.202225 -11.614426
1.387889 -0.142823 -11.644746
1.477474 0.368556 -12.396389
1.482117 0.431153 -12.435339
1.399034 -0.071476 -11.738253
1.406056 -0.008691 -11.79717
1.374669 -2.331862 -11.533824
1.365192 -2.195528 -11.454313
1.472222 -3.209346 -12.352316
1.430159 -2.974381 -11.999404
1.354638 -2.087304 -11.365761
1.35867 -1.990259 -11.399589
1.401054 -2.783171 -11.755201
1.382044 -2.673795 -11.595705
1.345965 -1.878657 -11.292993
1.330841 -1.758703 -11.166095
1.37384 -2.546395 -11.526872
1.374099 -2.461433 -11.529047
1.301936 -1.40869 -11.211184
1.304433 -1.353603 -11.232684
1.386039 0.069808 -11.935403
1.390824 0.139059 -11.976605
1.302569 -1.284729 -11.216634
1.31645 -1.219102 -11.336165
1.315559 -1.710177 -11.328486
1.309663 -1.628246 -11.277719
1.286011 -1.140778 -11.074048
1.300271 -1.079694 -11.196846
1.306805 -1.562168 -11.253113
1.294832 -1.483607 -11.150009
1.331214 -0.614711 -11.463297
1.330105 -0.557629 -11.453748
1.29076 -0.989452 -11.114941
1.299797 -0.945705 -11.19276
1.321331 -0.476681 -11.378195
1.338473 -0.428312 -11.525805
1.314907 -0.884465 -11.322874
1.311962 -0.810413 -11.297519
1.351963 -0.353568 -11.641972
1.340625 -0.293586 -11.544338
1.324418 -0.759432 -11.404775
1.32233 -0.685593 -11.386796
1.404023 0.217508 -12.090269
1.422193 0.28837 -12.246734
1.350438 -0.202404 -11.628843
1.33576 -0.141027 -11.502441
1.424347 0.364528 -12.26528
1.494058 0.445912 -12.865576
1.360581 -0.071316 -11.716184
1.362651 -0.008641 -11.734009
1.329506 -2.313809 -11.448593
1.315783 -2.17101 -11.330419
1.424326 -3.185555 -12.265097
1.401872 -2.991252 -12.07175
1.319273 -2.085592 -11.360471
1.32108 -1.985442 -11.376032
1.373026 -2.798313 -11.82335
1.360672 -2.700798 -11.716969
1.313339 -1.880715 -11.309378
1.308905 -1.774627 -11.271192
1.332295 -2.533508 -11.472606
1.331579 -2.447198 -11.46644
1.262379 -1.402315 -11.164307
1.264306 -1.34695 -11.181346
1.35479 0.070054 -11.981574
1.350459 0.138624 -11.943278
1.259499 -1.275377 -11.138839
1.265443 -1.203119 -11.191403
1.281073 -1.709759 -11.329638
1.266904 -1.61709 -11.204326
1.27061 -1.157175 -11.237105
1.278959 -1.090318 -11.310936
1.279001 -1.569704 -11.311307
1.286524 -1.513399 -11.377839
1.284121 -0.608778 -11.356588
1.279502 -0.55072 -11.31574
1.262217 -0.993376 -11.162879
1.27358 -0.951343 -11.26337
1.287718 -0.476944 -11.388402
1.314826 -0.431965 -11.628142
1.256366 -0.867625 -11.11113
1.271989 -0.806675 -11.249298
1.30017 -0.34909 -11.498528
1.318103 -0.296351 -11.657123
1.286078 -0.757114 -11.3739
1.274839 -0.678598 -11.274507
1.372105 0.218232 -12.134712
1.372944 0.285808 -12.142128
1.316199 -0.202533 -11.640288
1.317515 -0.142811 -11.651923
1.389558 0.365109 -12.28906
1.41415 0.433318 -12.506554
1.349185 -0.072605 -11.932009
1.331575 -0.008669 -11.77627
1.287449 -2.300369 -11.386026
1.296068 -2.195511 -11.462246
1.402548 -3.220504 -12.403948
1.35787 -2.97463 -12.008821
1.278965 -2.075792 -11.310996
1.286037 -1.98432 -11.373536
1.339155 -2.802066 -11.843302
1.332756 -2.715935 -11.786712
1.271537 -1.869413 -11.245301
1.269103 -1.76655 -11.223769
1.313162 -2.563719 -11.613425
1.294958 -2.443364 -11.452433
1.24606 -1.422127 -11.325845
1.252044 -1.370447 -11.380228
1.308992 0.069541 -11.897846
1.320104 0.139223 -11.998852
1.234351 -1.28417 -11.219408
1.226604 -1.198157 -11.149001
1.256646 -1.723127 -11.422059
1.246632 -1.634829 -11.331042
1.237792 -1.158185 -11.250693
1.238197 -1.084501 -11.254369
1.239148 -1.562476 -11.263013
1.242105 -1.501196 -11.289891
1.269158 -0.618176 -11.535787
1.269624 -0.561446 -11.540024
1.258041 -1.017226 -11.434741
1.249402 -0.958862 -11.356214
1.25876 -0.478997 -11.441274
1.274435 -0.430171 -11.583746
1.254791 -0.890288 -11.405194
1.248715 -0.81362 -11.349973
1.292255 -0.356475 -11.745721
1.26901 -0.293134 -11.534437
1.250766 -0.756508 -11.368616
1.25434 -0.685986 -11.401099
1.331548 0.217587 -12.102866
1.328869 0.284215 -12.078517
1.287715 -0.203581 -11.704452
1.280186 -0.142568 -11.636021
1.365802 0.368703 -12.41421
1.367945 0.430649 -12.433694
1.303958 -0.072094 -11.852095
1.308746 -0.008754 -11.895615
1.259454 -2.312027 -11.447578
1.242597 -2.162626 -11.294362
1.36669 -3.22418 -12.422284
1.315915 -2.961732 -11.96077
1.239232 -2.066431 -11.263778
1.243686 -1.971571 -11.304263
1.290008 -2.773214 -11.725298
1.305599 -2.733518 -11.86701
1.23567 -1.866474 -11.231402
1.245045 -1.780563 -11.316608
1.283769 -2.575029 -11.668584
1.277 -2.475521 -11.60706
1.211683 -1.421877 -11.327557
1.200254 -1.350796 -11.220715
1.283795 0.070125 -12.001701
1.279811 0.138778 -11.964455
1.210854 -1.295238 -11.319804
1.215572 -1.220853 -11.363909
1.204821 -1.698636 -11.263405
1.196311 -1.613065 -11.18385
1.204905 -1.159195 -11.26419
1.221378 -1.099927 -11.418194
1.202309 -1.558763 -11.239923
1.208272 -1.501472 -11.295668
1.197225 -0.599578 -11.192395
1.226879 -0.557839 -11.469623
1.208169 -1.00444 -11.294706
1.205747 -0.951445 -11.272063
1.226467 -0.479865 -11.465764
1.225638 -0.425363 -11.458014
1.21546 -0.886694 -11.362863
1.216195 -0.814771 -11.36974
1.244991 -0.353119 -11.638942
1.228319 -0.291733 -11.483081
1.205228 -0.749515 -11.267214
1.215064 -0.683239 -11.359162
1.305873 0.219407 -12.208103
1.313004 0.288738 -12.274769
1.248923 -0.203015 -11.675701
1.247896 -0.142889 -11.666095
1.320734 0.366588 -12.347031
1.343237 0.434792 -12.557406
1.269735 -0.072181 -11.870266
1.250977 -0.008604 -11.6949
1.222048 -2.306601 -11.424451
1.225309 -2.192655 -11.454937
1.313307 -3.185586 -12.277603
1.287474 -2.979409 -12.036097
1.218715 -2.089507 -11.393292
1.211148 -1.974115 -11.322556
1.271579 -2.810658 -11.887502
1.248274 -2.687173 -11.669632
1.208075 -1.876234 -11.293823
1.212148 -1.782385 -11.3319
1.257459 -2.593362 -11.755504
1.235547 -2.462684 -11.550651
1.166128 -1.408125 -11.221574
1.168255 -1.352933 -11.242041
1.237309 0.069547 -11.906543
1.235744 0.137888 -11.891479
1.17805 -1.296712 -11.336291
1.163921 -1.202898 -11.200336
1.170097 -1.697548 -11.259766
1.172526 -1.626867 -11.283138
1.160813 -1.14918 -11.170424
1.162337 -1.077129 -11.185088
1.170067 -1.560978 -11.259479
1.174977 -1.502464 -11.306725
1.188708 -0.612586 -11.438859
1.196269 -0.559703 -11.51161
1.186732 -1.015245 -11.419836
1.176275 -0.955122 -11.319217
1.196757 -0.481827 -11.516312
1.194956 -0.426748 -11.498976
1.188209 -0.891965 -11.434051
1.176413 -0.810987 -11.320542
1.200179 -0.350286 -11.549236
1.210329 -0.295801 -11.646916
1.184384 -0.757924 -11.397242
1.186754 -0.686683 -11.420051
1.267615 0.219158 -12.198171
1.286286 0.29107 -12.377841
1.211041 -0.202569 -11.653768
1.228562 -0.144757 -11.822366
1.279893 0.36556 -12.316319
1.288051 0.429026 -12.394824
1.230063 -0.071955 -11.836807
1.218938 -0.008627 -11.729761
1.184268 -2.30015 -11.396126
1.174999 -2.163636 -11.306931
1.283131 -3.202698 -12.34748
1.246669 -2.96869 -11.996607
1.175568 -2.074013 -11.312407
1.181094 -1.980987 -11.365583
1.226852 -2.790478 -11.805908
1.222596 -2.708263 -11.764957
1.176526 -1.880256 -11.321632
1.16931 -1.769285 -11.252186
1.218818 -2.586605 -11.728606
1.201591 -2.464496 -11.562828
1.136202 -1.413005 -11.263937
1.130626 -1.348499 -11.208655
1.194652 0.069156 -11.843382
1.218915 0.140076 -12.083917
1.138996 -1.291205 -11.291635
1.133296 -1.206261 -11.235123
1.145966 -1.71224 -11.360724
1.141958 -1.631821 -11.320991
1.14513 -1.167545 -11.352444
1.143824 -1.091661 -11.339492
1.126977 -1.548438 -11.172475
1.140748 -1.502303 -11.309
1.157212 -0.614183 -11.472219
1.152219 -0.555209 -11.422719
1.146241 -1.00992 -11.363453
1.137005 -0.950834 -11.271889
1.16481 -0.482985 -11.547544
1.155916 -0.425147 -11.459366
1.13886 -0.880478 -11.29028
1.142234 -0.810965 -11.323728
1.15589 -0.347445 -11.45911
1.181429 -0.29737 -11.712297
1.145894 -0.755215 -11.360015
1.159261 -0.690828 -11.492532
1.210444 0.21553 -11.999944
1.232801 0.287307 -12.221586
1.176809 -0.202728 -11.666496
1.201006 -0.145741 -11.906378
1.256865 0.369714 -12.460143
1.265022 0.433952 -12.541009
1.166969 -0.070305 -11.568943
1.198623 -0.008737 -11.882751
1.160971 -2.322313 -11.509484
1.146445 -2.174169 -11.365482
1.244315 -3.198662 -12.33573
1.210453 -2.96862 -12.000031
1.149928 -2.089428 -11.400003
1.141137 -1.971187 -11.312851
1.203811 -2.819928 -11.934189
1.180674 -2.693586 -11.704817
1.146698 -1.88737 -11.367982
1.144964 -1.784239 -11.350797
1.172807 -2.563367 -11.626823
1.170135 -2.471727 -11.600337
1.103802 -1.415026 -11.28343
1.096973 -1.348693 -11.213625
1.169436 0.069783 -11.954358
1.179406 0.139714 -12.056275
1.101234 -1.286879 -11.25718
1.113381 -1.221595 -11.381351
1.095898 -1.687906 -11.202626
1.098711 -1.61842 -11.231382
1.118924 -1.175992 -11.438008
1.116086 -1.098024 -11.409003
1.104466 -1.564287 -11.290213
1.114261 -1.512654 -11.390339
1.114352 -0.609667 -11.39127
1.123921 -0.558268 -11.489088
1.112226 -1.010158 -11.369535
1.098575 -0.947017 -11.23
1.126479 -0.48149 -11.515244
1.130944 -0.428785 -11.560885
1.112596 -0.886688 -11.373321
1.109279 -0.811845 -11.339417
1.137474 -0.352449 -11.627637
1.136918 -0.294988 -11.62195
1.112826 -0.756029 -11.375676
1.125558 -0.69142 -11.505825
1.187714 0.218002 -12.141206
1.206399 0.289821 -12.332211
1.14473 -0.20328 -11.701808
1.153349 -0.144272 -11.789918
1.199617 0.363752 -12.262877
1.208467 0.42733 -12.353345
1.141928 -0.070917 -11.673168
1.166868 -0.008767 -11.928109
1.126747 -2.32333 -11.517975
1.105898 -2.161922 -11.304851
1.211688 -3.210806 -12.386275
1.179772 -2.982566 -12.060017
1.110603 -2.080181 -11.352953
1.097997 -1.955136 -11.224092
1.174827 -2.836867 -12.009475
1.154041 -2.713984 -11.796988
1.105712 -1.876012 -11.302955
1.106589 -1.777594 -11.311915
1.130846 -2.547843 -11.559876
1.12863 -2.457544 -11.537228
1.065276 -1.409083 -11.2393
1.070732 -1.35831 -11.296869
1.127088 0.069396 -11.891459
1.144296 0.139867 -12.073009
1.072952 -1.293718 -11.320287
1.081752 -1.22465 -11.413133
1.090532 -1.733078 -11.505771
1.074587 -1.633243 -11.337543
1.063066 -1.15283 -11.215981
1.067751 -1.08389 -11.265414
1.067737 -1.560377 -11.265266
1.076605 -1.508032 -11.358833
1.095078 -0.618182 -11.553728
1.090222 -0.558757 -11.502497
1.076376 -1.0087 -11.356415
1.070497 -0.95217 -11.294388
1.091 -0.48116 -11.510708
1.088357 -0.425765 -11.482817
1.067707 -0.877984 -11.264954
1.082817 -0.81769 -11.424368
1.085857 -0.347159 -11.456446
1.09483 -0.293105 -11.551115
1.071029 -0.750782 -11.300005
1.076919 -0.682587 -11.362141
1.14576 0.216992 -12.088462
1.182582 0.293137 -12.476949
1.101142 -0.201761 -11.617711
1.113085 -0.143665 -11.743717
1.176315 0.368034 -12.41083
1.200979 0.438193 -12.671049
1.12195 -0.071893 -11.837253
1.121375 -0.008694 -11.831177
1.089327 -2.31763 -11.493052
1.087097 -2.192779 -11.469532
1.195869 -3.269701 -12.617136
1.14386 -2.983775 -12.068411
