5.571838 -0.895331 -11.262281
5.781097 -0.862332 -11.685252
4.983499 -2.256171 -10.073078
5.053302 -2.168969 -10.21417
5.253936 -4.316184 -10.619709
5.008078 -3.326963 -10.122759
4.905427 -3.175102 -9.915274
5.193014 -4.129684 -10.496568
5.057812 -3.949888 -10.223287
5.007776 -3.13054 -10.122149
4.966393 -3.003935 -10.038501
5.110955 -3.89008 -10.330705
5.047879 -3.732702 -10.203209
4.958644 -2.884956 -10.02284
4.909177 -2.72492 -9.922853
5.046082 -3.608087 -10.199576
5.008689 -3.452051 -10.123995
5.041599 -2.073306 -10.190515
5.008101 -1.95795 -10.122806
4.927491 -2.612424 -9.95987
4.891517 -2.525705 -9.887155
5.046515 -1.879914 -10.200451
5.036853 -1.776473 -10.180922
5.010022 -2.478346 -10.126688
4.94272 -2.363027 -9.990653
5.144354 -1.456849 -10.477601
5.186327 -1.408599 -10.563087
5.193251 -1.340627 -10.57719
5.188296 -1.257531 -10.567099
5.019478 -1.707841 -10.223263
5.03798 -1.639362 -10.260946
5.274694 -1.224649 -10.743067
5.289431 -1.149565 -10.773083
5.096041 -1.594438 -10.379202
5.141369 -1.541851 -10.471521
5.367608 -1.076931 -10.932307
5.353559 -1.019486 -10.903693
5.504683 -0.969117 -11.211489
5.5549 -0.898089 -11.313769
5.661436 -0.849667 -11.530751
4.921144 -2.241617 -10.022985
4.956141 -2.140323 -10.094264
5.222891 -4.317018 -10.63756
4.969289 -3.321458 -10.121042
4.922219 -3.205527 -10.025175
5.111262 -4.089622 -10.410203
5.059297 -3.9753 -10.304364
4.925305 -3.097884 -10.031462
4.899749 -2.981817 -9.97941
5.036216 -3.856723 -10.257356
5.079612 -3.779224 -10.345741
4.903109 -2.870155 -9.986252
4.970383 -2.775827 -10.123271
5.045578 -3.629871 -10.276422
4.986405 -3.457787 -10.155905
5.023935 -2.078724 -10.232342
4.941494 -1.943768 -10.064432
4.849225 -2.58671 -9.876506
4.875587 -2.532932 -9.930198
5.016685 -1.880273 -10.217576
4.960505 -1.760285 -10.103153
4.902417 -2.440002 -9.984843
4.860251 -2.337863 -9.898964
5.090775 -1.450593 -10.448003
5.143165 -1.405516 -10.555526
5.152248 -1.338269 -10.574167
5.223344 -1.273856 -10.72008
5.002864 -1.712716 -10.26758
5.059476 -1.65654 -10.383767
5.22628 -1.220914 -10.726106
5.233307 -1.144402 -10.740527
5.056755 -1.591932 -10.378183
5.087486 -1.535128 -10.441255
5.350532 -1.080145 -10.981112
5.430493 -1.040532 -11.145219
5.405433 -0.95753 -11.093789
5.478004 -0.891134 -11.242727
5.619849 -0.848642 -11.533843
4.916181 -2.253206 -10.089675
4.974865 -2.161697 -10.210115
5.202701 -4.326926 -10.677714
4.841058 -3.255761 -9.935498
4.915609 -3.221021 -10.088502
5.10261 -4.107949 -10.472291
5.028015 -3.975154 -10.319197
4.846763 -3.067337 -9.947206
4.917099 -3.010882 -10.091559
5.063119 -3.901305 -10.391243
4.986176 -3.732651 -10.23333
4.842135 -2.851994 -9.93771
4.830361 -2.714313 -9.913545
4.909245 -3.553634 -10.07544
4.963533 -3.463215 -10.18686
4.927246 -2.051327 -10.112386
4.99739 -1.977913 -10.256345
4.808618 -2.580914 -9.86892
4.8958 -2.559164 -10.047847
4.942883 -1.86407 -10.144477
5.016052 -1.791005 -10.294646
4.918536 -2.463166 -10.09451
4.858768 -2.351604 -9.971847
4.986101 -1.429622 -10.312044
5.137062 -1.412598 -10.624255
5.150466 -1.346144 -10.651978
5.129685 -1.258812 -10.608999
4.983107 -1.716585 -10.305852
4.952545 -1.631636 -10.242645
5.177985 -1.217171 -10.708891
5.19578 -1.143278 -10.745694
5.057054 -1.601949 -10.458786
5.024061 -1.525439 -10.390553
5.321767 -1.081034 -11.006254
5.277535 -1.017527 -10.914777
5.377923 -0.958594 -11.122395
5.476775 -0.896487 -11.326835
5.561862 -0.84512 -11.50281
4.839689 -2.231973 -10.009241
4.839279 -2.115888 -10.008393
5.171948 -4.32816 -10.696406
4.950794 -3.350316 -10.239024
4.894183 -3.22697 -10.121944
5.051232 -4.091934 -10.446748
5.018671 -3.992498 -10.379404
4.839156 -3.081612 -10.008139
4.853331 -2.99036 -10.037457
4.989208 -3.868316 -10.318471
4.995516 -3.762953 -10.331517
4.787795 -2.837564 -9.901917
4.788862 -2.707767 -9.904123
4.893918 -3.56462 -10.121394
4.831064 -3.391797 -9.991404
4.990498 -2.09061 -10.321138
4.957839 -1.97449 -10.253593
4.871705 -2.631073 -10.075456
4.813554 -2.531855 -9.955191
4.928423 -1.870201 -10.192758
4.990067 -1.792833 -10.320248
4.832809 -2.435319 -9.995013
4.853069 -2.363486 -10.036913
5.081151 -1.466026 -10.590004
5.15847 -1.427395 -10.751148
5.053501 -1.329097 -10.532377
5.133887 -1.267757 -10.699915
4.968901 -1.722443 -10.356054
4.896089 -1.623168 -10.204302
5.118827 -1.210823 -10.668528
5.105066 -1.130373 -10.639845
4.989628 -1.590518 -10.399254
4.978271 -1.52103 -10.375585
5.144979 -1.051687 -10.723033
5.30715 -1.029664 -11.061025
5.379574 -0.964912 -11.21197
5.378035 -0.885854 -11.208762
5.559447 -0.850059 -11.586855
4.860859 -2.255818 -10.130877
4.849541 -2.133694 -10.107289
5.069157 -4.268785 -10.565005
4.848458 -3.301672 -10.10503
4.915053 -3.261086 -10.243826
5.021467 -4.093372 -10.465611
4.978472 -3.985396 -10.376003
4.75824 -3.049117 -9.917001
4.774982 -2.960565 -9.951894
4.979977 -3.885412 -10.379141
4.928613 -3.735876 -10.272087
4.814348 -2.871224 -10.033938
4.808981 -2.736223 -10.022755
4.891696 -3.585383 -10.195148
4.879801 -3.447534 -10.170356
4.848194 -2.043753 -10.104481
4.915963 -1.97011 -10.245724
4.793975 -2.605356 -9.99148
4.74069 -2.509192 -9.880423
4.893437 -1.868589 -10.198775
4.986764 -1.8029 -10.393286
4.887291 -2.478243 -10.185966
4.819527 -2.361894 -10.044733
5.080881 -1.475227 -10.671845
5.019996 -1.397871 -10.543964
5.00912 -1.325765 -10.521121
5.096726 -1.266547 -10.705129
4.923892 -1.717646 -10.342109
4.928061 -1.64411 -10.350865
5.031057 -1.197595 -10.567197
5.176463 -1.153437 -10.872605
4.990018 -1.600712 -10.480999
4.977365 -1.53038 -10.454424
5.227777 -1.075376 -10.980387
5.217898 -1.018756 -10.959636
5.256186 -0.948748 -11.040055
5.406127 -0.896119 -11.354993
5.486396 -0.8442 -11.523587
4.757148 -2.221663 -9.991881
4.840917 -2.143382 -10.167829
5.051984 -4.281254 -10.611152
4.859426 -3.330089 -10.206706
4.796742 -3.202735 -10.075044
4.964345 -4.072426 -10.427077
4.965954 -4.000539 -10.430454
4.748987 -3.062452 -9.97474
4.766457 -2.973986 -10.011431
4.914799 -3.858834 -10.323011
4.882898 -3.724654 -10.256004
4.793713 -2.877015 -10.06868
4.824939 -2.762681 -10.134268
4.882165 -3.601048 -10.254465
4.806586 -3.417304 -10.095718
4.832801 -2.050161 -10.150782
4.796496 -1.934401 -10.074527
4.761174 -2.603909 -10.000337
4.765506 -2.538294 -10.009436
4.855861 -1.865978 -10.199217
4.824449 -1.755258 -10.133238
4.767201 -2.43265 -10.012995
4.766318 -2.350605 -10.011142
4.995316 -1.459636 -10.574169
5.027575 -1.408912 -10.642458
4.979643 -1.32637 -10.540996
5.109385 -1.277792 -10.815634
4.884685 -1.714839 -10.339985
4.868139 -1.634479 -10.304962
5.069678 -1.214487 -10.731581
5.071523 -1.137263 -10.735488
4.934961 -1.593149 -10.446411
4.931826 -1.526052 -10.439775
5.133228 -1.062663 -10.866105
5.181473 -1.018098 -10.968232
5.261084 -0.95569 -11.136754
5.328484 -0.888883 -11.279427
5.44343 -0.842932 -11.522748
4.839067 -2.274337 -10.243421
4.779716 -2.129785 -10.117786
5.057205 -4.313018 -10.705179
4.775162 -3.293219 -10.108145
4.779314 -3.211456 -10.116935
4.968115 -4.101518 -10.516593
4.919967 -3.988777 -10.414673
4.743341 -3.078323 -10.040787
4.725659 -2.967341 -10.003357
4.766465 -3.766243 -10.089736
4.819152 -3.699478 -10.201263
4.773966 -2.883441 -10.105615
4.689948 -2.702518 -9.927763
4.809103 -3.569787 -10.179992
4.740749 -3.391998 -10.035298
4.832736 -2.063211 -10.230018
4.858953 -1.97209 -10.285515
4.766827 -2.623631 -10.090503
4.752317 -2.547416 -10.059786
4.818977 -1.863618 -10.200893
4.861336 -1.779961 -10.290562
4.838302 -2.484682 -10.241801
4.750722 -2.357859 -10.056412
4.974216 -1.462816 -10.61226
5.015887 -1.414675 -10.701163
4.96591 -1.331218 -10.594542
4.96093 -1.248643 -10.583916
4.878429 -1.723655 -10.407904
4.771298 -1.612265 -10.179346
5.029294 -1.212559 -10.729768
5.031417 -1.135524 -10.734296
4.866271 -1.581076 -10.381968
4.908957 -1.528742 -10.473034
5.106784 -1.063987 -10.895089
5.205585 -1.029413 -11.105877
5.251398 -0.960064 -11.203616
5.304217 -0.890524 -11.316302
5.381239 -0.83866 -11.480626
4.784372 -2.263089 -10.207238
4.77921 -2.143252 -10.196223
4.992661 -4.285351 -10.651614
4.722923 -3.278135 -10.076138
4.733047 -3.200816 -10.097739
4.946107 -4.109603 -10.552293
4.884096 -3.985156 -10.419995
4.637643 -3.02908 -9.894197
4.683992 -2.960088 -9.99308
4.903225 -3.899216 -10.460806
4.726066 -3.651348 -10.082843
4.727451 -2.873706 -10.0858
4.737405 -2.747417 -10.107035
4.74569 -3.545367 -10.124711
4.796199 -3.453738 -10.23247
4.75378 -2.042553 -10.141971
4.750978 -1.940665 -10.135992
4.710022 -2.609035 -10.048615
4.694218 -2.532453 -10.014899
4.835912 -1.882192 -10.317195
4.823399 -1.777426 -10.2905
4.686491 -2.422196 -9.998414
4.722546 -2.358946 -10.075334
4.895508 -1.449 -10.52684
4.909808 -1.393731 -10.55759
4.952599 -1.336253 -10.649603
4.957397 -1.25584 -10.659922
4.746627 -1.687955 -10.206702
4.909112 -1.669585 -10.556094
5.014322 -1.216784 -10.782328
5.01639 -1.13947 -10.786775
4.822126 -1.576886 -10.369047
4.851457 -1.520627 -10.432118
5.082486 -1.065787 -10.9289
5.135356 -1.022106 -11.042588
5.22392 -0.96123 -11.233027
5.246839 -0.8866 -11.282309
5.349272 -0.839081 -11.502573
4.660215 -2.218647 -10.020889
4.721337 -2.131021 -10.152321
4.935914 -4.264099 -10.613727
4.69874 -3.282485 -10.103728
4.749906 -3.233035 -10.213753
4.853281 -4.058609 -10.436039
4.862729 -3.993435 -10.456356
4.681227 -3.077362 -10.066071
4.672167 -2.971751 -10.04659
4.773028 -3.820278 -10.263472
4.709718 -3.662299 -10.127336
4.700196 -2.875654 -10.106859
4.700475 -2.743666 -10.10746
4.724754 -3.552601 -10.159668
4.725184 -3.424652 -10.160593
4.731679 -2.046233 -10.174559
4.76164 -1.957626 -10.238984
4.681618 -2.610107 -10.066912
4.623577 -2.510508 -9.942105
4.70891 -1.844639 -10.125599
4.778239 -1.772196 -10.274676
4.683917 -2.436554 -10.071855
4.671803 -2.348723 -10.045806
4.957315 -1.476878 -10.74437
4.909261 -1.402678 -10.640221
4.916635 -1.335214 -10.6562
4.904772 -1.250625 -10.630489
4.772264 -1.708157 -10.343294
4.764253 -1.630902 -10.325933
4.953897 -1.209973 -10.73696
5.038852 -1.152048 -10.921092
4.795583 -1.578449 -10.393835
4.808225 -1.51692 -10.421236
5.050993 -1.066101 -10.947407
5.095216 -1.020741 -11.043254
5.207115 -0.964396 -11.285781
5.278114 -0.89771 -11.439663
5.34868 -0.844468 -11.592607
4.674571 -2.240017 -10.131557
4.617459 -2.097747 -10.007774
4.937226 -4.293092 -10.700831
4.66213 -3.278184 -10.104591
4.643392 -3.18118 -10.063981
4.848438 -4.081043 -10.508393
4.824422 -3.987855 -10.456341
4.614061 -3.053021 -10.00041
4.669897 -2.989708 -10.121427
4.763249 -3.837353 -10.323756
4.795137 -3.753077 -10.39287
4.639658 -2.857158 -10.055887
4.615249 -2.711516 -10.002985
4.72243 -3.574047 -10.235287
4.689218 -3.420783 -10.163301
4.687135 -2.040209 -10.158788
4.689567 -1.940588 -10.16406
4.635225 -2.601122 -10.04628
4.63309 -2.532105 -10.041651
4.790445 -1.888837 -10.382701
4.752355 -1.774109 -10.300144
4.687525 -2.454358 -10.159634
4.689068 -2.372801 -10.162978
4.803026 -1.440334 -10.493045
4.86223 -1.398387 -10.622385
4.895788 -1.338307 -10.695699
4.961631 -1.273453 -10.839546
4.821537 -1.737157 -10.533486
4.736996 -1.632248 -10.348791
4.98328 -1.225164 -10.886841
4.981991 -1.146548 -10.884026
4.789165 -1.586716 -10.462765
4.796664 -1.523237 -10.479147
4.989421 -1.060039 -10.900258
5.044114 -1.017157 -11.019745
5.090202 -0.948951 -11.12043
5.186901 -0.888005 -11.331685
5.235608 -0.832058 -11.438094
4.682321 -2.258505 -10.229343
4.688481 -2.144038 -10.242803
4.857009 -4.25115 -10.610982
4.613502 -3.265351 -10.078997
4.610446 -3.179406 -10.07232
4.799126 -4.066134 -10.484524
4.779055 -3.976365 -10.440676
4.616972 -3.075062 -10.086579
4.633709 -2.986073 -10.123142
4.73476 -3.839518 -10.343907
4.625758 -3.644345 -10.105771
4.614436 -2.860337 -10.081038
4.67047 -2.762026 -10.203452
4.655726 -3.546765 -10.171243
4.637712 -3.405485 -10.131886
4.641848 -2.0338 -10.140924
4.696517 -1.95626 -10.260357
4.651577 -2.627485 -10.162178
4.626184 -2.544978 -10.106701
4.62981 -1.837519 -10.114626
4.710709 -1.770141 -10.291361
4.614571 -2.432069 -10.081331
4.628242 -2.357442 -10.111198
4.818993 -1.454714 -10.612386
4.835201 -1.399844 -10.648081
4.867137 -1.339306 -10.71841
4.881084 -1.261095 -10.749125
4.71245 -1.709123 -10.377758
4.744058 -1.645531 -10.447364
4.925022 -1.218878 -10.845883
5.010417 -1.160743 -11.033938
4.780527 -1.594366 -10.527676
4.805875 -1.536291 -10.583498
4.978097 -1.064653 -10.962767
4.986323 -1.012177 -10.980881
5.091444 -0.955482 -11.212378
5.131921 -0.884424 -11.301516
5.247309 -0.839453 -11.555625
4.624623 -2.24548 -10.184346
4.634459 -2.1334 -10.206005
4.91937 -4.334309 -10.833436
4.598857 -3.27659 -10.127604
4.582029 -3.180782 -10.090545
4.815761 -4.10731 -10.60527
4.676311 -3.916702 -10.29817
4.528021 -3.035834 -9.971609
4.658109 -3.021721 -10.258087
4.684781 -3.824203 -10.316826
4.692427 -3.721407 -10.333664
4.535246 -2.829908 -9.987517
4.587851 -2.731175 -10.103366
4.616491 -3.540217 -10.166436
4.615858 -3.411935 -10.165044
4.62573 -2.04019 -10.186783
4.623417 -1.938594 -10.181689
4.58084 -2.604703 -10.087926
4.588227 -2.54085 -10.104194
4.685744 -1.872062 -10.318948
4.766817 -1.803113 -10.497483
4.622347 -2.452337 -10.179333
4.639106 -2.378659 -10.21624
4.716912 -1.433426 -10.471358
4.789073 -1.395766 -10.631555
4.828512 -1.337568 -10.719108
4.881226 -1.269569 -10.836128
4.660506 -1.701593 -10.346141
4.718784 -1.647716 -10.475515
4.893791 -1.219252 -10.864022
4.924713 -1.148522 -10.93267
4.702501 -1.578838 -10.439368
4.74664 -1.527508 -10.537354
4.993944 -1.075188 -11.086358
4.984347 -1.018546 -11.065055
5.049851 -0.954017 -11.210469
5.147156 -0.892985 -11.426484
5.172858 -0.833079 -11.483541
4.604692 -2.250762 -10.222234
4.555457 -2.111063 -10.112934
4.77263 -4.233156 -10.595051
4.643454 -3.3305 -10.308286
4.538215 -3.171445 -10.074659
4.703984 -4.03882 -10.442658
4.728878 -3.987232 -10.497923
4.517253 -3.048879 -10.028124
4.584904 -2.994133 -10.178307
4.659368 -3.828907 -10.343615
4.616319 -3.685544 -10.248048
4.596981 -2.887621 -10.205116
4.561337 -2.733559 -10.12599
4.570759 -3.5286 -10.146907
4.628064 -3.443847 -10.274121
4.611886 -2.047694 -10.238206
4.624945 -1.95221 -10.267196
4.605736 -2.636381 -10.224553
4.601539 -2.565272 -10.215235
4.587809 -1.845199 -10.184756
4.591856 -1.748554 -10.193739
4.561412 -2.4362 -10.126155
4.595702 -2.37217 -10.202277
4.779972 -1.462386 -10.697383
4.811838 -1.411859 -10.768698
4.748204 -1.324192 -10.626287
4.861675 -1.273013 -10.880231
4.605169 -1.692729 -10.306181
4.625789 -1.626138 -10.352327
4.800701 -1.204127 -10.743773
4.88356 -1.146606 -10.929209
4.675288 -1.580288 -10.463103
4.72546 -1.530949 -10.575388
4.922894 -1.06704 -11.017236
4.963637 -1.021155 -11.108418
5.012611 -0.953369 -11.218019
5.092819 -0.889517 -11.397521
5.201506 -0.843343 -11.640759
4.535871 -2.232075 -10.151093
4.54513 -2.120484 -10.171816
4.770818 -4.260089 -10.676897
4.593988 -3.317244 -10.281157
4.565918 -3.212326 -10.218338
4.711971 -4.072964 -10.5452
4.656408 -3.952607 -10.420851
4.535754 -3.082013 -10.150833
4.507274 -2.963289 -10.087095
4.577305 -3.78684 -10.243823
4.612729 -3.707515 -10.323099
4.523079 -2.860362 -10.122467
4.497789 -2.713655 -10.065868
4.591506 -3.568523 -10.275604
4.545201 -3.404997 -10.171974
4.574679 -2.044874 -10.237946
4.564527 -1.939702 -10.215226
4.470446 -2.576199 -10.004677
4.512914 -2.532834 -10.099718
4.628756 -1.874224 -10.358968
4.618245 -1.770463 -10.335444
4.523863 -2.432441 -10.12422
4.576511 -2.378197 -10.242046
4.722188 -1.454532 -10.654219
4.716704 -1.393357 -10.641847
4.771696 -1.339793 -10.765921
4.804621 -1.266629 -10.840206
4.696459 -1.738024 -10.596169
4.707699 -1.666186 -10.62153
4.788827 -1.209316 -10.80457
4.879243 -1.153383 -11.008567
4.679024 -1.592305 -10.556833
4.679501 -1.526368 -10.557908
4.902566 -1.06986 -11.061191
4.901964 -1.015325 -11.059832
4.992771 -0.956053 -11.264709
5.046292 -0.887384 -11.385465
5.158442 -0.842048 -11.638496
4.446101 -2.202779 -10.03131
4.587052 -2.154595 -10.349325
4.688828 -4.215348 -10.578955
4.468868 -3.248841 -10.082679
4.524015 -3.204489 -10.207101
4.692635 -4.083833 -10.587542
4.650652 -3.974567 -10.49282
4.517016 -3.090153 -10.19131
4.538435 -3.004067 -10.239637
4.664107 -3.884891 -10.523176
4.551341 -3.68305 -10.268753
4.47786 -2.851022 -10.102965
4.493034 -2.72922 -10.137201
4.557496 -3.566177 -10.282641
4.546419 -3.429071 -10.257649
4.517186 -2.032905 -10.191694
4.564889 -1.953047 -10.299322
4.486033 -2.602761 -10.121408
4.431033 -2.50379 -9.997315
4.618613 -1.882833 -10.420532
4.611906 -1.780056 -10.405398
4.431884 -2.39919 -9.999236
4.452703 -2.329595 -10.046206
4.654451 -1.443497 -10.587474
4.669553 -1.388885 -10.621826
4.721193 -1.334701 -10.739292
4.772745 -1.266851 -10.856557
4.554261 -1.696955 -10.359572
4.567869 -1.62778 -10.390526
4.786542 -1.217026 -10.88794
4.821551 -1.147559 -10.967576
4.660064 -1.596725 -10.600241
4.663893 -1.531707 -10.608952
4.890415 -1.074525 -11.124221
4.937036 -1.0296 -11.230268
4.920637 -0.9487 -11.192966
4.999471 -0.885178 -11.37229
5.138966 -0.84462 -11.689598
4.494511 -2.24203 -10.22366
4.510334 -2.133085 -10.259652
4.733412 -4.284604 -10.767086
4.488425 -3.28543 -10.209816
4.454976 -3.177221 -10.133729
4.630818 -4.057666 -10.533716
4.631377 -3.98523 -10.534987
4.403439 -3.033106 -10.016497
4.462951 -2.974355 -10.151868
4.543791 -3.810623 -10.335755
4.582918 -3.734029 -10.424758
4.457409 -2.857459 -10.139263
4.457305 -2.72608 -10.139026
4.508564 -3.552075 -10.255626
4.450336 -3.379614 -10.123173
4.52951 -2.052427 -10.303272
4.543394 -1.957178 -10.334853
4.494891 -2.625779 -10.224522
4.493074 -2.556253 -10.220389
4.548046 -1.866777 -10.345434
4.580611 -1.780099 -10.419511
4.504256 -2.455086 -10.245826
4.477825 -2.3588 -10.185704
4.650608 -1.452274 -10.665923
4.622019 -1.384249 -10.600359
4.721812 -1.344103 -10.829227
4.784694 -1.278801 -10.973444
4.549689 -1.706969 -10.434471
4.57117 -1.640216 -10.483738
4.730104 -1.210989 -10.848245
4.776 -1.144575 -10.953506
4.646189 -1.602975 -10.655791
4.647547 -1.536889 -10.658904
4.900173 -1.084111 -11.238288
4.845508 -1.017496 -11.112918
4.927375 -0.956565 -11.300675
5.052158 -0.900689 -11.586859
5.013321 -0.829665 -11.497789
4.466487 -2.24345 -10.243653
4.524426 -2.154539 -10.376534
4.641156 -4.230133 -10.644247
4.477521 -3.300101 -10.268958
4.454034 -3.198505 -10.215093
4.579407 -4.040352 -10.502628
4.60583 -3.990641 -10.563228
4.40427 -3.054646 -10.100961
4.463197 -2.995079 -10.236108
4.51829 -3.815428 -10.36246
4.538509 -3.723405 -10.408832
4.414998 -2.849833 -10.125565
4.435612 -2.731563 -10.172843
4.516731 -3.583106 -10.358886
4.469041 -3.417277 -10.249511
4.429196 -2.020844 -10.158127
4.476247 -1.94158 -10.266036
4.431662 -2.606737 -10.163783
4.422963 -2.533758 -10.143834
4.535988 -1.874697 -10.40305
4.55325 -1.781696 -10.442637
4.39634 -2.412828 -10.082775
4.430801 -2.350162 -10.16181
4.590708 -1.44356 -10.615823
4.677172 -1.41053 -10.815767
4.653804 -1.333977 -10.761732
4.656211 -1.253135 -10.767297
4.507736 -1.703017 -10.423954
4.531487 -1.637309 -10.478877
4.682416 -1.207136 -10.827896
4.79071 -1.156102 -11.07832
4.518726 -1.569865 -10.449368
4.587394 -1.52757 -10.60816
4.749568 -1.058115 -10.983179
4.831079 -1.021537 -11.171672
4.823061 -0.942841 -11.15313
4.934883 -0.885913 -11.411714
5.025963 -0.837554 -11.622333
4.439802 -2.245589 -10.266857
4.410227 -2.114795 -10.198469
4.66825 -4.284483 -10.795135
4.395351 -3.262118 -10.164068
4.349309 -3.145069 -10.057597
4.581666 -4.07052 -10.594914
4.560723 -3.979101 -10.546486
4.454575 -3.111069 -10.30102
4.383341 -2.961992 -10.136295
4.495654 -3.822772 -10.396013
4.429662 -3.659436 -10.24341
4.36963 -2.840208 -10.104589
4.423692 -2.74321 -10.229606
4.462831 -3.565022 -10.320112
4.411493 -3.396783 -10.201396
4.383438 -2.013906 -10.136519
4.43827 -1.938525 -10.263315
4.413358 -2.614064 -10.205709
4.417977 -2.548541 -10.216389
4.486338 -1.8671 -10.374472
4.493743 -1.770667 -10.391597
4.410197 -2.437303 -10.1984
4.436134 -2.36939 -10.258377
4.522015 -1.431953 -10.54415
4.601248 -1.397385 -10.7289
4.608094 -1.330158 -10.744864
4.62881 -1.254516 -10.793171
4.476476 -1.703092 -10.437965
4.524112 -1.646133 -10.549042
4.678421 -1.214582 -10.908849
4.687704 -1.139194 -10.930493
4.53881 -1.587925 -10.583313
4.517996 -1.515034 -10.534781
4.731464 -1.06149 -11.032533
4.79083 -1.020146 -11.170957
4.869886 -0.958685 -11.355294
4.935851 -0.892315 -11.509108
4.997981 -0.838744 -11.653977
4.408077 -2.245213 -10.278479
4.358751 -2.1048 -10.163462
4.63526 -4.284103 -10.808208
4.369177 -3.265482 -10.187774
4.399211 -3.203512 -10.257806
4.564027 -4.083347 -10.642114
4.533843 -3.983448 -10.57173
4.405559 -3.098461 -10.272606
4.413176 -3.003111 -10.290366
4.494234 -3.848423 -10.479373
4.495403 -3.739846 -10.482098
4.413075 -2.888605 -10.290131
4.373667 -2.73125 -10.198243
4.449843 -3.57963 -10.375866
4.407016 -3.417184 -10.276003
4.442481 -2.055377 -10.358699
4.448258 -1.956542 -10.372169
4.405193 -2.627565 -10.271751
4.423291 -2.56954 -10.313953
4.460166 -1.869253 -10.399936
4.462612 -1.770758 -10.405639
4.384821 -2.44031 -10.224253
4.424472 -2.379769 -10.316706
4.538255 -1.44728 -10.670747
4.555444 -1.393279 -10.711164
4.579844 -1.331372 -10.768536
4.619519 -1.260871 -10.861824
4.492605 -1.721342 -10.563412
4.482594 -1.642585 -10.539872
4.636722 -1.212287 -10.902272
4.658426 -1.140102 -10.953304
4.482958 -1.579499 -10.540729
4.524449 -1.52795 -10.638286
4.686305 -1.058809 -11.018855
4.789828 -1.027161 -11.262271
4.862656 -0.964045 -11.433507
4.888288 -0.889979 -11.493777
5.054169 -0.854185 -11.883809
4.343771 -2.228138 -10.213459
4.388106 -2.133992 -10.317704
4.598594 -4.280336 -10.812623
4.37816 -3.295385 -10.294317
4.338298 -3.181543 -10.200591
4.487056 -4.042932 -10.550364
4.517496 -3.997215 -10.621938
4.280635 -3.031937 -10.065009
4.329766 -2.967233 -10.180531
4.494091 -3.875573 -10.566905
4.489098 -3.761067 -10.555165
4.326021 -2.851691 -10.171724
4.40109 -2.767852 -10.348233
4.431279 -3.589958 -10.419216
4.437818 -3.465455 -10.434591
4.403347 -2.051709 -10.353539
4.40684 -1.952062 -10.361753
4.355721 -2.616468 -10.241556
4.372502 -2.558037 -10.281016
4.453128 -1.87953 -10.470591
4.425637 -1.768532 -10.405951
4.314952 -2.418444 -10.145699
4.330326 -2.345638 -10.181847
4.481564 -1.439415 -10.626315
4.548196 -1.401003 -10.784309
4.536009 -1.328052 -10.755413
4.634718 -1.274059 -10.989464
4.481876 -1.729503 -10.627057
4.476871 -1.652211 -10.615189
4.588911 -1.208361 -10.88085
4.64887 -1.145895 -11.023021
4.452163 -1.579859 -10.556604
4.470627 -1.520563 -10.600384
4.702854 -1.070141 -11.151022
4.755501 -1.027087 -11.275855
4.891844 -0.976763 -11.59914
4.889037 -0.896476 -11.592484
4.908433 -0.835483 -11.638474
4.306182 -2.224642 -10.210466
4.349642 -2.130403 -10.313514
4.605503 -4.317401 -10.920191
4.317145 -3.272681 -10.23646
4.320428 -3.191081 -10.244246
4.540593 -4.120406 -10.766282
4.468675 -3.982272 -10.595756
4.349677 -3.102855 -10.313597
4.361404 -3.010274 -10.341405
4.449123 -3.864212 -10.549396
4.393407 -3.7072 -10.417286
4.295029 -2.851494 -10.18402
4.314683 -2.732902 -10.230622
4.399463 -3.589653 -10.431646
4.340863 -3.413967 -10.292699
4.387357 -2.058867 -10.402941
4.418221 -1.971089 -10.476124
4.311926 -2.608671 -10.224087
4.281164 -2.522499 -10.151146
4.424604 -1.880836 -10.491259
4.459769 -1.794907 -10.574638
4.296694 -2.42542 -10.187967
4.342232 -2.368896 -10.295945
4.43299 -1.434075 -10.600317
4.504179 -1.397444 -10.770548
4.492422 -1.324771 -10.742435
4.594102 -1.271996 -10.985576
4.443134 -1.72691 -10.624575
4.433512 -1.648002 -10.601567
4.570549 -1.2122 -10.929253
4.631238 -1.149776 -11.074377
4.403484 -1.573848 -10.529763
4.428626 -1.517134 -10.589883
4.651476 -1.066079 -11.12277
4.730536 -1.029059 -11.311819
4.696181 -0.944453 -11.229671
4.851899 -0.896079 -11.602028
4.929412 -0.845101 -11.787379
4.259912 -2.2166 -10.186449
4.357431 -2.1496 -10.41964
4.547747 -4.293985 -10.874729
4.317923 -3.296862 -10.325166
4.336126 -3.225758 -10.368694
4.453066 -4.070104 -10.648324
4.448291 -3.992678 -10.636907
4.316137 -3.10112 -10.320894
4.278546 -2.974369 -10.231008
4.366423 -3.819717 -10.44114
4.389059 -3.730223 -10.495268
4.262293 -2.850156 -10.192143
4.32841 -2.761356 -10.350244
4.38464 -3.603343 -10.484702
4.334599 -3.433611 -10.365045
4.359671 -2.06062 -10.424994
4.342392 -1.951222 -10.383679
4.306438 -2.624129 -10.297703
4.256505 -2.526046 -10.178302
4.402464 -1.884913 -10.527324
4.432955 -1.796974 -10.600234
4.291057 -2.439696 -10.260922
4.32355 -2.375704 -10.338623
4.484227 -1.461195 -10.814354
4.512066 -1.410067 -10.881494
4.507913 -1.339002 -10.871477
4.528157 -1.262851 -10.920299
4.382542 -1.715741 -10.569126
4.43786 -1.66161 -10.702536
4.554944 -1.216843 -10.984899
4.555978 -1.139313 -10.987393
4.349274 -1.565771 -10.488895
4.460839 -1.539278 -10.757953
4.588473 -1.059284 -11.065759
4.700461 -1.029949 -11.335835
4.801267 -0.972606 -11.578943
4.896249 -0.910842 -11.808005
4.9013 -0.846389 -11.820186
4.287755 -2.247306 -10.340537
4.318532 -2.145896 -10.41476
4.564631 -4.341255 -11.008261
4.293442 -3.302 -10.354251
4.285736 -3.211447 -10.335666
4.456746 -4.103077 -10.74808
4.372564 -3.953236 -10.545064
4.272878 -3.092355 -10.304657
4.246824 -2.973776 -10.241824
4.387393 -3.865961 -10.580827
4.340168 -3.715484 -10.466935
4.242588 -2.857601 -10.231607
4.266467 -2.741624 -10.289195
4.309364 -3.567224 -10.39265
4.26895 -3.406189 -10.295185
4.317641 -2.055589 -10.412609
4.343735 -1.966013 -10.47554
4.268202 -2.619735 -10.293381
4.269852 -2.552386 -10.297359
4.389624 -1.893077 -10.586207
4.332814 -1.769147 -10.449201
4.280205 -2.451215 -10.322328
4.273511 -2.365277 -10.306184
4.470036 -1.46725 -10.872696
4.479644 -1.410198 -10.896067
4.526469 -1.35437 -11.009961
4.526335 -1.271598 -11.009636
4.314499 -1.701486 -10.494375
4.361596 -1.645028 -10.608932
4.460611 -1.200378 -10.84977
4.52588 -1.140084 -11.008529
4.353393 -1.578745 -10.588978
4.389099 -1.525626 -10.67583
4.611726 -1.072457 -11.217336
4.639675 -1.024083 -11.285316
4.734601 -0.966132 -11.516212
4.83231 -0.905538 -11.753873
4.882592 -0.84934 -11.876176
4.265013 -2.251774 -10.374008
4.274136 -2.139406 -10.396197
4.485033 -4.296825 -10.909174
4.235633 -3.281422 -10.302546
4.250515 -3.208405 -10.338743
4.399425 -4.079999 -10.700945
4.414579 -4.020483 -10.737806
4.235511 -3.087784 -10.302248
4.239289 -2.990263 -10.31144
4.363666 -3.873244 -10.613968
4.321995 -3.727053 -10.512609
4.256802 -2.888196 -10.354037
4.24934 -2.750637 -10.335885
4.271147 -3.561509 -10.388929
4.264011 -3.427191 -10.371572
4.295056 -2.059828 -10.447083
4.29215 -1.956908 -10.440016
4.22981 -2.615204 -10.288381
4.206944 -2.533219 -10.232765
4.265638 -1.853093 -10.375528
4.342149 -1.785957 -10.56163
4.268988 -2.462715 -10.383677
4.244139 -2.366242 -10.323236
4.396641 -1.453829 -10.786556
4.450646 -1.411429 -10.91905
4.469259 -1.347141 -10.964716
4.521761 -1.279706 -11.093523
4.292481 -1.70532 -10.531014
4.308962 -1.637193 -10.571448
4.451993 -1.206918 -10.922355
4.535553 -1.150969 -11.127357
4.306276 -1.573205 -10.564859
4.409553 -1.544069 -10.818234
4.652403 -1.089916 -11.414034
4.647473 -1.03339 -11.401939
4.706923 -0.967586 -11.547791
4.757536 -0.898118 -11.671962
4.865047 -0.852546 -11.935726
4.26788 -2.269949 -10.470658
4.26696 -2.151607 -10.468402
4.474939 -4.318854 -10.97865
4.217498 -3.291533 -10.347055
4.191058 -3.186918 -10.282187
4.354845 -4.068519 -10.684016
4.377647 -4.016328 -10.73996
4.224877 -3.102807 -10.365157
4.160898 -2.95667 -10.208193
4.304829 -3.849272 -10.561309
4.290194 -3.726985 -10.525403
4.182214 -2.85857 -10.26049
4.177938 -2.724415 -10.249998
4.27709 -3.592835 -10.493253
4.227432 -3.422914 -10.371426
4.268243 -2.062104 -10.471551
4.267489 -1.960051 -10.469701
4.165841 -2.594698 -10.220321
4.186716 -2.539679 -10.271535
4.322084 -1.891498 -10.603642
4.284184 -1.775145 -10.510658
4.24334 -2.466019 -10.410453
4.255007 -2.389843 -10.439078
4.391174 -1.462852 -10.866795
4.392934 -1.403519 -10.871151
4.431566 -1.345743 -10.966755
4.463097 -1.272525 -11.044782
4.251081 -1.70147 -10.520109
4.333528 -1.658808 -10.724139
4.443305 -1.213547 -10.995803
4.533987 -1.159154 -11.220214
4.31582 -1.588453 -10.680317
4.331956 -1.528212 -10.720249
4.606743 -1.08727 -11.400261
4.632481 -1.037739 -11.463954
4.678956 -0.969012 -11.578965
4.728467 -0.899289 -11.701493
4.825757 -0.851969 -11.942253
4.199722 -2.250359 -10.39301
4.171969 -2.1194 -10.324329
4.458286 -4.334878 -11.032878
4.175759 -3.283266 -10.33371
4.190263 -3.210079 -10.369601
4.343806 -4.088476 -10.749574
4.350456 -4.021152 -10.76603
4.179298 -3.092227 -10.342467
4.164373 -2.981212 -10.305533
4.274477 -3.850642 -10.578007
4.244514 -3.714806 -10.503858
4.165596 -2.868449 -10.308561
4.202186 -2.760667 -10.399108
4.220581 -3.571812 -10.44463
4.241158 -3.459642 -10.495549
4.278283 -2.082372 -10.587425
4.206394 -1.946401 -10.409523
4.158328 -2.609338 -10.290571
4.162781 -2.543995 -10.301594
4.222178 -1.861559 -10.448583
4.288482 -1.79018 -10.612665
4.168781 -2.440761 -10.316442
4.183723 -2.367333 -10.353418
4.351833 -1.460655 -10.863647
4.390129 -1.413177 -10.959247
4.41421 -1.350558 -11.019361
4.368246 -1.254852 -10.90462
4.268975 -1.721489 -10.656804
4.272414 -1.64772 -10.665389
4.432671 -1.219752 -11.065445
4.511658 -1.162124 -11.262621
4.308518 -1.597697 -10.755516
4.286768 -1.52365 -10.701223
4.451365 -1.058503 -11.112111
4.534963 -1.023538 -11.3208
4.640585 -0.968297 -11.58447
4.69358 -0.899371 -11.716761
4.890876 -0.869962 -12.209278
4.145568 -2.238056 -10.34874
4.177482 -2.138169 -10.428408
4.371475 -4.282451 -10.912679
4.185934 -3.316031 -10.449506
4.17264 -3.220632 -10.416321
4.359311 -4.133943 -10.882313
4.311653 -4.015273 -10.763343
4.109709 -3.063619 -10.259223
4.174669 -3.01107 -10.421385
4.242243 -3.850359 -10.590072
4.243563 -3.741919 -10.593369
4.144203 -2.87519 -10.34533
4.191751 -2.774532 -10.464028
4.21722 -3.595822 -10.527606
4.138197 -3.401054 -10.33034
4.197482 -2.058417 -10.478333
4.196135 -1.956263 -10.474972
4.121233 -2.605519 -10.28799
4.099744 -2.524323 -10.234346
4.215975 -1.87281 -10.524498
4.285962 -1.80259 -10.699208
4.146697 -2.446098 -10.351555
4.084132 -2.328369 -10.195374
4.324758 -1.462585 -10.891092
4.34051 -1.407809 -10.930762
4.373445 -1.348242 -11.0137
4.404658 -1.274916 -11.092304
4.287453 -1.742063 -10.797148
4.249403 -1.651285 -10.701324
4.42178 -1.225991 -11.135423
4.418442 -1.146752 -11.127019
4.275858 -1.59762 -10.767947
4.255237 -1.523922 -10.716017
4.505588 -1.079529 -11.346478
4.571713 -1.039664 -11.513002
4.570706 -0.960955 -11.510468
4.678601 -0.903305 -11.78218
4.112678 -2.237152 -10.357008
4.181794 -2.156621 -10.531065
4.441697 -4.38427 -11.18558
4.138838 -3.303608 -10.422889
4.104188 -3.191841 -10.335628
4.338182 -4.145132 -10.9249
4.288509 -4.024033 -10.799806
4.137005 -3.107374 -10.418273
4.113726 -2.989634 -10.359647
4.201335 -3.842172 -10.580274
4.211226 -3.741589 -10.605184
4.111416 -2.874093 -10.353831
4.120776 -2.748256 -10.377401
4.119444 -3.539114 -10.374049
4.168634 -3.452073 -10.497924
4.15483 -2.052965 -10.463161
4.140393 -1.944927 -10.426804
4.084646 -2.601989 -10.286416
4.106817 -2.547872 -10.342249
4.189392 -1.875127 -10.550199
4.241882 -1.797592 -10.682384
4.122701 -2.450402 -10.38225
4.116928 -2.36488 -10.367711
4.291984 -1.462617 -10.904323
4.296208 -1.404111 -10.915055
4.344327 -1.349522 -11.037307
4.370129 -1.274608 -11.102859
4.223283 -1.72913 -10.72978
4.213613 -1.649916 -10.705211
4.431757 -1.238167 -11.259435
4.412247 -1.153913 -11.209867
4.193951 -1.579017 -10.655256
4.271256 -1.541373 -10.851663
4.441692 -1.072369 -11.284675
4.421709 -1.013252 -11.233905
4.590621 -0.972532 -11.663046
4.727363 -0.919709 -12.010458
4.153537 -2.27668 -10.552583
4.125093 -2.143671 -10.480317
4.394253 -4.370655 -11.164151
4.072487 -3.27554 -10.346663
4.095033 -3.20911 -10.403945
4.295826 -4.136093 -10.914083
4.254179 -4.02239 -10.808276
4.16162 -3.149801 -10.573116
4.107051 -3.007641 -10.434478
4.220518 -3.889273 -10.722754
4.207268 -3.766699 -10.689092
4.043407 -2.848197 -10.272782
4.079175 -2.741345 -10.363657
4.139642 -3.583701 -10.517279
4.137395 -3.452442 -10.511571
4.117854 -2.050277 -10.461923
4.153995 -1.966259 -10.553745
4.113792 -2.640624 -10.451605
4.106035 -2.566894 -10.431897
4.185566 -1.887761 -10.633956
4.176756 -1.783548 -10.611572
4.121142 -2.468234 -10.470278
4.133728 -2.392715 -10.502253
4.279917 -1.469774 -10.970637
4.352814 -1.433603 -11.157492
4.305068 -1.347659 -11.035107
4.366879 -1.283501 -11.193544
4.168025 -1.719691 -10.683827
4.226401 -1.66771 -10.833459
4.35396 -1.22583 -11.16043
4.340683 -1.143968 -11.126395
4.22744 -1.603923 -10.836124
4.213242 -1.532185 -10.799728
4.491682 -1.092817 -11.513449
4.504291 -1.040151 -11.54577
4.516208 -0.96416 -11.576317
4.644394 -0.910549 -11.904893
4.08532 -2.25659 -10.471828
4.064337 -2.128417 -10.418044
4.388279 -4.398437 -11.2484
4.098857 -3.322221 -10.506528
4.035904 -3.187209 -10.345161
4.267765 -4.140823 -10.939487
4.22013 -4.021025 -10.817385
4.07472 -3.107857 -10.444658
4.11311 -3.035349 -10.543062
4.218919 -3.917838 -10.81428
4.198264 -3.787678 -10.761337
4.04233 -2.869438 -10.361633
4.070397 -2.75658 -10.433577
4.124958 -3.598579 -10.573432
4.111709 -3.457517 -10.539471
4.118226 -2.066304 -10.556175
4.122923 -1.96663 -10.568217
4.073668 -2.635072 -10.441963
4.039109 -2.544564 -10.353376
4.173573 -1.896896 -10.698048
4.212121 -1.812547 -10.796858
4.072804 -2.45813 -10.439748
4.077854 -2.37861 -10.452691
4.197078 -1.452562 -10.854873
4.213829 -1.398647 -10.898195
4.308681 -1.359305 -11.143512
4.296194 -1.272569 -11.111215
4.132293 -1.71824 -10.687321
4.176663 -1.660931 -10.802073
4.349927 -1.234242 -11.250186
4.367254 -1.159944 -11.294998
4.228714 -1.616914 -10.936693
4.214767 -1.544688 -10.900622
4.491676 -1.101335 -11.616791
4.477829 -1.042101 -11.580976
4.50144 -0.968499 -11.642043
4.707609 -0.930137 -12.175254
4.06524 -2.263004 -10.513902
4.088254 -2.157632 -10.573421
4.420661 -4.465435 -11.433125
4.052805 -3.310504 -10.481742
4.017421 -3.197345 -10.390226
4.25901 -4.164544 -11.015049
4.191669 -4.025042 -10.840884
4.044766 -3.10906 -10.46095
4.058393 -3.018318 -10.496193
4.170247 -3.902829 -10.78548
4.187337 -3.80727 -10.829679
4.038186 -2.888843 -10.443932
4.004335 -2.732982 -10.356384
4.050394 -3.561076 -10.475504
4.122521 -3.493633 -10.662045
4.109638 -2.07807 -10.628727
4.08625 -1.964332 -10.568239
4.009659 -2.613886 -10.370152
4.022242 -2.553692 -10.402694
4.100262 -1.878103 -10.604478
4.110685 -1.782686 -10.631435
4.046017 -2.460999 -10.464185
4.078392 -2.397469 -10.547915
4.203234 -1.466134 -10.969023
4.209847 -1.408316 -10.986282
4.241172 -1.348531 -11.06803
4.325501 -1.291328 -11.288099
4.121742 -1.727333 -10.756356
4.146789 -1.662022 -10.821722
4.302987 -1.230526 -11.229347
4.396435 -1.176879 -11.473214
4.16674 -1.605749 -10.873787
4.231218 -1.562915 -11.042055
4.400074 -1.087361 -11.482711
4.464849 -1.047253 -11.651752
4.496637 -0.975075 -11.734707
4.724602 -0.940837 -12.32962
3.996687 -2.242341 -10.430005
4.058758 -2.158913 -10.59199
4.379888 -4.459048 -11.430031
4.020562 -3.309998 -10.492311
4.012568 -3.218601 -10.47145
4.27169 -4.209795 -11.147672
4.123042 -3.990284 -10.75975
4.008942 -3.105761 -10.461987
3.978844 -2.982431 -10.383442
4.144523 -3.909264 -10.815809
4.0756 -3.734823 -10.635944
3.97821 -2.868322 -10.381788
3.99789 -2.750045 -10.433144
4.041729 -3.581409 -10.547552
4.032663 -3.444364 -10.523892
4.092329 -2.085593 -10.679598
4.065341 -1.969652 -10.609171
4.036118 -2.65183 -10.532906
3.963035 -2.535893 -10.342188
4.099024 -1.892304 -10.69707
4.119407 -1.800521 -10.750264
3.966234 -2.431446 -10.350533
4.023986 -2.384093 -10.50125
4.182099 -1.470341 -11.013165
4.192767 -1.413736 -11.041259
4.199632 -1.345922 -11.059335
4.320293 -1.300011 -11.377085
4.05885 -1.714478 -10.6886
4.13748 -1.671454 -10.895664
4.293163 -1.237462 -11.305641
4.364715 -1.177662 -11.494066
4.183207 -1.624891 -11.016081
4.164085 -1.550327 -10.965726
4.397751 -1.095413 -11.581064
4.389709 -1.037802 -11.559887
4.50143 -0.983863 -11.854092
3.999712 -2.261851 -10.532866
3.99803 -2.143492 -10.528436
3.968726 -3.293257 -10.451265
3.997214 -3.231736 -10.526286
4.135544 -4.107974 -10.890566
4.180707 -4.078209 -11.0095
3.997774 -3.121694 -10.527762
4.016714 -3.034717 -10.57764
4.06222 -3.862046 -10.697473
4.10254 -3.789352 -10.803653
3.988461 -2.89854 -10.503237
3.990801 -2.76696 -10.5094
4.024407 -3.594367 -10.597899
4.018773 -3.459746 -10.583059
3.989252 -2.0492 -10.50532
4.03113 -1.96858 -10.615602
4.005806 -2.652806 -10.548915
3.935183 -2.538059 -10.362933
4.098423 -1.907045 -10.792811
4.0991 -1.805866 -10.794595
3.998563 -2.470723 -10.52984
3.946351 -2.356656 -10.392344
4.139119 -1.466888 -10.999828
4.08547 -1.388592 -10.857256
4.178555 -1.349895 -11.104632
4.247072 -1.288216 -11.286717
4.078678 -1.736655 -10.839205
4.059949 -1.653272 -10.789433
4.209583 -1.223091 -11.18709
4.250049 -1.15591 -11.29463
4.122967 -1.614321 -10.956903
4.11697 -1.545064 -10.940968
4.361027 -1.094967 -11.589558
4.465209 -1.064108 -11.866424
4.482788 -0.987637 -11.913138
3.942446 -2.247327 -10.477165
4.017071 -2.170953 -10.675483
3.97866 -3.327948 -10.573403
3.975397 -3.239844 -10.564734
4.199955 -4.205375 -11.161503
4.136999 -4.0679 -10.994195
3.942113 -3.102889 -10.476279
3.913881 -2.980711 -10.401251
4.103689 -3.932726 -10.905674
4.024187 -3.746755 -10.694394
3.954753 -2.897066 -10.509872
3.897727 -2.724076 -10.358321
3.99114 -3.593209 -10.606571
4.005274 -3.475747 -10.644133
3.986251 -2.064061 -10.593576
4.018191 -1.97798 -10.678461
3.949233 -2.636292 -10.495202
3.9337 -2.557425 -10.45392
4.030199 -1.890321 -10.710369
4.042039 -1.794993 -10.741836
3.995973 -2.488901 -10.619412
3.997665 -2.406422 -10.62391
4.068716 -1.453593 -10.912458
4.134761 -1.416706 -11.089594
4.183295 -1.362351 -11.219766
4.214927 -1.2888 -11.304601
4.040355 -1.734244 -10.836394
4.088325 -1.678285 -10.965052
4.269805 -1.250617 -11.451787
4.279181 -1.173241 -11.476934
4.069893 -1.606422 -10.915616
4.07501 -1.541679 -10.929341
4.373998 -1.107102 -11.731238
4.360986 -1.047671 -11.696339
4.496729 -0.998717 -12.060407
3.958556 -2.274751 -10.617006
3.993115 -2.175451 -10.709693
3.947681 -3.328729 -10.587838
3.938171 -3.235451 -10.562333
4.178203 -4.217414 -11.206108
4.111345 -4.075355 -11.026793
3.976039 -3.154891 -10.663897
3.927887 -3.01556 -10.53475
4.041644 -3.904576 -10.83985
4.00005 -3.754389 -10.728293
3.916962 -2.892578 -10.505448
3.920216 -2.761941 -10.514175
3.975806 -3.608339 -10.663271
4.003248 -3.502072 -10.736873
4.017636 -2.09713 -10.775462
4.00568 -1.987761 -10.743393
3.946131 -2.655515 -10.583679
3.951633 -2.589853 -10.598438
3.99331 -1.888161 -10.710217
3.964072 -1.774599 -10.6318
3.936968 -2.471973 -10.559107
3.909722 -2.37251 -10.48603
4.102581 -1.477651 -11.105491
4.106032 -1.418342 -11.114835
4.139168 -1.358979 -11.204532
4.150329 -1.279403 -11.234742
4.050747 -1.752892 -10.965181
4.03411 -1.669542 -10.920143
4.25379 -1.256093 -11.514809
4.221602 -1.166899 -11.427678
4.107967 -1.63468 -11.120072
4.040333 -1.541032 -10.936991
4.338518 -1.107082 -11.744163
4.34939 -1.053411 -11.773591
4.497832 -1.007113 -12.175417
3.923579 -2.273049 -10.620942
3.91831 -2.152116 -10.60668
3.945057 -3.353659 -10.679081
3.879347 -3.213128 -10.501206
4.137178 -4.210079 -11.199145
4.076815 -4.0741 -11.035745
3.890963 -3.112577 -10.532653
3.891631 -3.012104 -10.534462
4.066988 -3.96112 -11.009144
4.019182 -3.803127 -10.879737
3.928601 -2.924845 -10.634535
3.864757 -2.745085 -10.461714
3.992022 -3.652619 -10.806214
3.948973 -3.48278 -10.689684
3.939593 -2.073172 -10.664291
3.955315 -1.978784 -10.70685
3.867772 -2.624022 -10.469876
3.916711 -2.58791 -10.60235
4.016758 -1.914745 -10.873175
3.982075 -1.797205 -10.779287
3.94129 -2.494879 -10.668884
3.914871 -2.395019 -10.597371
4.088727 -1.48479 -11.171527
4.150023 -1.445344 -11.339007
4.141519 -1.37095 -11.315768
4.169209 -1.295808 -11.391426
4.000986 -1.745618 -10.931795
4.05725 -1.692948 -11.085526
4.209619 -1.253287 -11.50184
4.248707 -1.184063 -11.608639
4.049311 -1.62461 -11.063831
4.06449 -1.563014 -11.105306
4.293377 -1.104586 -11.730688
4.312935 -1.053185 -11.784126
3.892771 -2.273774 -10.636122
3.940944 -2.182374 -10.767745
3.902529 -3.34483 -10.662785
3.922792 -3.275872 -10.718147
4.121857 -4.229033 -11.262049
4.058967 -4.089672 -11.090216
3.878558 -3.128207 -10.597288
3.848277 -3.003079 -10.514553
3.987665 -3.915849 -10.895399
3.98902 -3.805673 -10.8991
3.844147 -2.88554 -10.503269
3.850849 -2.757734 -10.521582
3.890878 -3.589395 -10.630951
3.944773 -3.507729 -10.778207
3.912583 -2.075915 -10.690253
3.91426 -1.974373 -10.694836
3.858214 -2.639096 -10.541703
3.86548 -2.575096 -10.561556
3.946716 -1.896851 -10.783516
3.985819 -1.81371 -10.890354
3.9132 -2.497499 -10.691939
3.862321 -2.382331 -10.552927
4.077984 -1.493201 -11.247158
4.099138 -1.439491 -11.3055
4.124762 -1.376755 -11.376173
4.130107 -1.294327 -11.390914
3.977565 -1.749827 -10.970201
3.961174 -1.6666 -10.924994
4.142276 -1.24349 -11.424477
4.204431 -1.181465 -11.595899
4.031456 -1.630894 -11.118834
3.999211 -1.550696 -11.029902
4.311387 -1.118441 -11.890884
4.317024 -1.062948 -11.906435
3.87445 -2.281888 -10.685807
3.866686 -2.159054 -10.664392
3.931564 -3.39773 -10.843328
3.878123 -3.265494 -10.695937
4.110771 -4.252723 -11.337584
4.079667 -4.144701 -11.251799
3.85949 -3.138707 -10.644546
3.848051 -3.027868 -10.612998
4.006608 -3.967161 -11.050303
3.920174 -3.771085 -10.811916
3.868321 -2.927826 -10.668904
3.83228 -2.767252 -10.569501
3.958605 -3.682234 -10.917908
3.959769 -3.550336 -10.921119
3.901268 -2.087121 -10.759772
3.953483 -2.010736 -10.903781
3.827551 -2.639888 -10.55646
3.879249 -2.605753 -10.699043
3.91363 -1.896587 -10.793865
3.946969 -1.810963 -10.885815
3.865926 -2.48784 -10.662296
3.864774 -2.403662 -10.659122
4.045329 -1.493674 -11.262973
4.018595 -1.423049 -11.188541
4.10715 -1.38238 -11.435096
4.11721 -1.301113 -11.463103
3.959199 -1.756364 -11.02317
3.986534 -1.691345 -11.099277
4.184353 -1.266663 -11.650043
4.20448 -1.191393 -11.706082
3.997518 -1.630736 -11.129861
3.977954 -1.555398 -11.07539
4.208713 -1.100968 -11.717866
4.371341 -1.085354 -12.170653
3.848873 -2.285847 -10.716003
3.897471 -2.194506 -10.851309
3.822819 -3.331475 -10.643463
3.815665 -3.239865 -10.623544
4.151459 -4.330858 -11.55846
3.955663 -4.052446 -11.013329
3.871675 -3.175039 -10.779487
3.854714 -3.058564 -10.732267
3.964054 -3.957963 -11.036687
3.943734 -3.825585 -10.980115
3.822702 -2.917579 -10.643139
3.843326 -2.798518 -10.700558
3.864153 -3.62454 -10.758546
3.889192 -3.51632 -10.828259
3.886702 -2.096777 -10.821326
3.863812 -1.98162 -10.757597
3.802288 -2.644471 -10.586302
3.835419 -2.597931 -10.678544
3.908165 -1.909832 -10.881083
3.940364 -1.823105 -10.970732
3.855921 -2.502225 -10.735627
3.87657 -2.431231 -10.793117
4.027639 -1.499743 -11.320932
4.011045 -1.43241 -11.27429
4.049972 -1.374685 -11.383706
4.045382 -1.289246 -11.370804
3.911233 -1.749786 -10.993737
3.923179 -1.678569 -11.027315
4.064348 -1.24076 -11.424115
4.184356 -1.195737 -11.761435
3.975039 -1.635305 -11.173084
3.989992 -1.573323 -11.215113
4.248068 -1.120679 -11.940516
4.366153 -1.093251 -12.272432
3.8532 -2.307806 -10.830617
3.840571 -2.180791 -10.79512
3.825435 -3.362 -10.752574
3.82612 -3.276268 -10.7545
4.151247 -4.367329 -11.668371
3.996587 -4.129062 -11.233651
3.787697 -3.13249 -10.646501
3.804175 -3.044038 -10.692818
3.960952 -3.988375 -11.133488
3.887726 -3.803209 -10.927665
3.811733 -2.933856 -10.714061
3.825162 -2.808891 -10.751808
3.882496 -3.672601 -10.912962
3.857535 -3.517248 -10.842803
3.875713 -2.108565 -10.893899
3.851628 -1.992109 -10.8262
3.77608 -2.648495 -10.613847
3.827919 -2.61482 -10.759558
3.851303 -1.897991 -10.825286
3.914988 -1.826711 -11.004291
3.778522 -2.472774 -10.620713
3.81733 -2.414362 -10.729795
3.979181 -1.494374 -11.292459
4.03182 -1.452146 -11.441842
4.003613 -1.370574 -11.361793
4.049654 -1.301648 -11.492453
3.86671 -1.744666 -10.973278
3.87994 -1.674269 -11.010824
4.073948 -1.25433 -11.561398
4.17276 -1.202624 -11.841811
3.951769 -1.639639 -11.214666
3.967531 -1.57785 -11.259396
4.248262 -1.130317 -12.056079
3.794276 -2.291955 -10.767719
3.771678 -2.159992 -10.703588
3.820824 -3.386674 -10.843059
3.822192 -3.300903 -10.846942
4.010156 -4.178522 -11.380362
3.791065 -3.162096 -10.758609
3.789826 -3.058498 -10.755092
3.918119 -3.978996 -11.119173
3.867667 -3.815953 -10.975996
3.77174 -2.927908 -10.703763
3.761054 -2.785441 -10.673439
3.903469 -3.724027 -11.077596
3.846954 -3.537607 -10.917214
3.854965 -2.115218 -10.939948
3.836546 -2.001283 -10.887676
3.816162 -2.699505 -10.829831
3.772652 -2.599113 -10.706354
3.875929 -1.926468 -10.999441
3.872623 -1.822401 -10.990059
3.774828 -2.491489 -10.712529
3.775964 -2.408629 -10.71575
3.957848 -1.499201 -11.340923
4.011705 -1.457382 -11.495246
3.990186 -1.377777 -11.433586
4.051263 -1.313413 -11.608598
3.865049 -1.75898 -11.075014
3.833632 -1.668576 -10.984992
4.076033 -1.265812 -11.679572
4.112545 -1.195508 -11.784196
3.939006 -1.64846 -11.286931
3.958216 -1.587742 -11.341977
4.232623 -1.135883 -12.128271
3.788226 -2.308065 -10.854884
3.801977 -2.196151 -10.894285
3.753164 -3.355436 -10.754414
3.801505 -3.311395 -10.892933
4.003235 -4.207341 -11.470976
3.775105 -3.175981 -10.817284
3.740382 -3.044668 -10.71779
3.902411 -3.997275 -11.182073
3.83354 -3.814951 -10.984729
3.797121 -2.97307 -10.88037
3.736527 -2.791179 -10.706743
3.850441 -3.705167 -11.033156
3.820866 -3.543966 -10.948412
3.790609 -2.097871 -10.861712
3.77378 -1.985545 -10.81349
3.736157 -2.665739 -10.705685
3.74007 -2.598922 -10.716893
3.901398 -1.955876 -11.179169
3.858265 -1.831328 -11.055575
3.779358 -2.516026 -10.829474
3.788994 -2.437818 -10.857084
3.919944 -1.497793 -11.342146
3.942215 -1.444628 -11.406585
4.032619 -1.404572 -11.668165
4.014795 -1.312942 -11.616593
3.839118 -1.762416 -11.108279
3.894942 -1.710045 -11.269803
4.058844 -1.271467 -11.744045
4.119636 -1.208013 -11.919942
3.838164 -1.620267 -11.105519
3.909227 -1.581767 -11.311137
3.732114 -2.293709 -10.798671
3.812376 -2.221363 -11.030903
3.75678 -3.387962 -10.87004
3.769554 -3.3122 -10.907001
4.113276 -4.360694 -11.901541
3.784368 -3.211541 -10.949863
3.771396 -3.096688 -10.91233
3.914706 -4.04484 -11.326989
3.852851 -3.867608 -11.148017
3.704743 -2.926039 -10.719474
3.724574 -2.806515 -10.776853
3.81532 -3.70339 -11.039422
3.78839 -3.544488 -10.961501
3.771684 -2.105602 -10.913163
3.754799 -1.992788 -10.864307
3.750944 -2.69963 -10.853153
3.751145 -2.629352 -10.853736
3.817654 -1.930584 -11.046175
3.738333 -1.789877 -10.816663
3.733985 -2.507499 -10.804085
3.745788 -2.431038 -10.838234
3.919643 -1.51087 -11.453042
3.935427 -1.454843 -11.499164
3.944303 -1.385912 -11.525098
3.988172 -1.315723 -11.653281
3.797952 -1.758875 -11.097467
3.866996 -1.71273 -11.29921
4.04391 -1.277947 -11.816147
4.052367 -1.198754 -11.84086
3.855457 -1.641903 -11.265495
3.912107 -1.596875 -11.431024
3.74475 -2.321747 -10.942015
3.73091 -2.193043 -10.901572
3.754191 -3.415447 -10.969598
3.761499 -3.334234 -10.990953
3.732239 -3.195201 -10.905457
3.707248 -3.070828 -10.832434
3.904334 -4.069656 -11.408312
3.805433 -3.853654 -11.119324
3.712333 -2.957859 -10.847292
3.655981 -2.779094 -10.682631
3.796694 -3.717771 -11.09379
3.783383 -3.570982 -11.054896
3.749845 -2.111849 -10.956899
3.787687 -2.027949 -11.067472
3.706556 -2.69118 -10.830411
3.699912 -2.616283 -10.810996
3.824754 -1.951211 -11.17578
3.808334 -1.839453 -11.127803
3.688982 -2.499098 -10.77906
3.72014 -2.435658 -10.870103
3.946758 -1.534855 -11.646815
3.933428 -1.467039 -11.607477
3.916306 -1.388316 -11.556952
4.025652 -1.339902 -11.879629
3.829856 -1.789428 -11.301839
3.811042 -1.702963 -11.246318
4.054499 -1.292691 -11.964757
4.145671 -1.237264 -12.233805
3.807632 -1.63596 -11.236258
3.854774 -1.587469 -11.375371
3.712771 -2.322396 -10.956323
3.692509 -2.189779 -10.89653
3.705076 -3.400749 -10.933615
3.74265 -3.347038 -11.044497
3.67759 -3.176422 -10.852504
3.709603 -3.100113 -10.946976
3.889594 -4.090356 -11.478123
3.833555 -3.916667 -11.312756
3.700102 -2.974339 -10.918935
3.671875 -2.816005 -10.835641
