5.5980973 -1.6795097 1.1360768
5.6431124 -1.6940885 -0.30878214
5.600921 -1.6824881 1.3501562
5.6343787 -1.6925386 -0.10268996
5.570591 -1.6744372 1.5586083
5.6317131 -1.701387 0.10268996
5.639552 -1.7059037 0.30878214
3.3635265 -1.0180713 -0.6830962
5.6233005 -1.7031305 0.51404457
5.6309055 -1.7065068 0.72244147
5.6325072 -1.7080656 -0.72268521
5.6008628 -1.6995369 0.92703064
5.6354553 -1.7111079 -0.51526475
5.5906185 -1.697494 1.1356951
5.6183535 -1.7069863 -0.30773542
5.5878529 -1.6987849 1.3483566
5.6303495 -1.712778 -0.10272486
5.5647122 -1.693872 1.5586083
5.6008811 -1.7134302 0.1022362
5.6109466 -1.7175804 0.30752608
5.6023824 -1.7170979 0.51265008
5.5964482 -1.7174164 0.71878539
5.6151248 -1.7242201 -0.72122277
5.5857544 -1.7152014 0.9254663
5.6164184 -1.7256901 -0.51404457
5.5527574 -1.7071904 1.1292076
5.5951801 -1.7213022 -0.30679338
5.5669891 -1.7136931 1.3447574
5.6150828 -1.7284978 -0.10255034
5.5442945 -1.7077664 1.5544672
5.5913478 -1.7308113 0.10216639
5.5839318 -1.7306518 0.30637469
3.3565188 -1.0409423 -0.6830962
5.5944516 -1.7360529 0.51247577
4.3260342 -1.3424415 -0.71740846
5.5717643 -1.7300788 0.716348
5.579045 -1.7334072 -0.71732296
5.56087 -1.7288245 0.92233761
5.6027506 -1.7429173 -0.51334732
5.5470656 -1.7255947 1.1292076
5.5799063 -1.736879 -0.30627002
5.5426699 -1.7263494 1.3402584
5.5861055 -1.7409477 -0.10213148
5.534611 -1.725959 1.5534319
5.5716099 -1.7471047 0.10192205
5.5568945 -1.7435556 0.3052233
3.3528648 -1.0526524 -0.6830962
5.5503415 -1.7436279 0.50898954
5.5710667 -1.7522755 0.71707922
5.5634921 -1.7498931 -0.71610426
5.537843 -1.7428879 0.91952179
5.589031 -1.76007 -0.51265008
5.5219788 -1.7400137 1.1253915
5.5811221 -1.759721 -0.3066887
5.5288715 -1.7443074 1.3384588
5.5666451 -1.7562247 -0.10188715
5.5064457 -1.7382891 1.5472203
5.5505369 -1.760734 0.10164282
5.5583887 -1.7653605 0.30564198
3.2593598 -1.0358085 -0.66477854
5.5347278 -1.7599728 0.50811798
5.5538754 -1.7671289 0.71561678
5.5535669 -1.7680982 -0.71561678
5.5147859 -1.7568116 0.91670597
5.5543789 -1.7704923 -0.51003541
5.5143079 -1.7577195 1.1250098
5.5448109 -1.7685086 -0.30501395
5.5193438 -1.7614473 1.337559
5.5338119 -1.7671289 -0.10139848
5.4837827 -1.7522077 1.5425615
5.5272213 -1.7745966 0.10132867
5.5391932 -1.7795069 0.30490928
3.2820739 -1.0550225 -0.67012119
5.5364479 -1.7807572 0.50881523
5.5268883 -1.7798115 0.71293566
5.5341353 -1.7832113 -0.71391061
5.501409 -1.7726663 0.91545449
5.525722 -1.781565 -0.50794367
5.4838491 -1.7691213 1.1200488
5.5176963 -1.7811039 -0.30386256
5.5057439 -1.7783068 1.3357594
5.5241156 -1.7842407 -0.10132867
5.4540449 -1.7626598 1.5358322
5.5003849 -1.7861221 0.10094472
5.5120545 -1.7920387 0.30375789
5.5207254 -1.7969888 0.50794367
5.4983057 -1.7907526 0.71001079
5.5187545 -1.798478 -0.71269192
5.4951878 -1.791859 0.91545449
5.5137871 -1.7989885 -0.50742073
5.472353 -1.7854698 1.1189039
5.4813813 -1.789474 -0.30218781
5.4738827 -1.7880833 1.3294607
5.5292583 -1.8072402 -0.1015381
5.4570396 -1.7846897 1.5384204
5.4862029 -1.8037717 0.1008051
5.4867932 -1.805027 0.30271117
3.2671692 -1.0754545 -0.66859472
5.4917104 -1.8087693 0.50585193
5.4860496 -1.8090279 0.70927958
5.4800784 -1.8081194 -0.70854836
5.4738923 -1.8060783 0.91295154
5.5150417 -1.8207227 -0.50811798
5.4527229 -1.8012044 1.1162326
5.4766821 -1.8101791 -0.30229248
5.4524909 -1.8032389 1.3258615
5.4925391 -1.8164836 -0.10097962
5.4306022 -1.7970515 1.5327264
5.4820888 -1.8225856 0.10084
5.4634037 -1.8184916 0.30176912
3.2447686 -1.080649 -0.66477854
5.4778024 -1.8254084 0.50515468
5.474371 -1.8253266 0.70854836
5.4759354 -1.8269103 -0.7087921
5.443196 -1.8170434 0.90888424
5.4746369 -1.828601 -0.50498037
5.4392714 -1.8167885 1.1147062
5.4611779 -1.8251651 -0.30176912
5.4353923 -1.817602 1.3231621
5.4672014 -1.8293 -0.10063058
5.4114728 -1.8117037 1.5291029
5.4567397 -1.8353356 0.10049096
5.466808 -1.8397842 0.30229248
3.2411672 -1.0914031 -0.66477854
5.4396212 -1.8327489 0.50219139
5.4604422 -1.8418867 0.70757341
5.456359 -1.8415701 -0.70708593
5.4315256 -1.8331886 0.90794564
5.4496664 -1.8403708 -0.50323726
5.4235968 -1.8326217 1.1127981
5.4453134 -1.8410186 -0.30124576
5.4345525 -1.8384374 1.3245118
5.4554224 -1.8454974 -0.10052586
5.394456 -1.8259226 1.5259971
5.429798 -1.8463392 0.100107
5.4338828 -1.8498446 0.30082708
3.2782226 -1.1166365 -0.67317414
5.4256471 -1.8491546 0.50149414
5.4317581 -1.8522955 0.70464854
5.4427071 -1.8570897 -0.70611098
5.4194852 -1.8502223 0.90700703
5.4394382 -1.8580944 -0.50288864
5.3914799 -1.841712 1.1074554
5.4353985 -1.8577739 -0.30103642
5.4081433 -1.8495125 1.3195629
5.4394872 -1.8612921 -0.10035134
5.3661171 -1.8372325 1.5197854
5.4132148 -1.8639193 0.099932479
5.4062946 -1.862592 0.29967569
3.2518351 -1.1209664 -0.66859472
5.4395517 -1.8761743 0.50341157
5.4114711 -1.8686028 0.70294237
5.4246057 -1.8731383 -0.70464854
5.4051991 -1.867493 0.90575555
5.4363575 -1.8793204 -0.50323726
5.3658145 -1.8559825 1.1036392
5.4077901 -1.8705014 -0.29988503
5.3865956 -1.8642231 1.3159637
5.4231807 -1.8779447 -0.10017681
5.3629981 -1.8581529 1.5208207
5.3975611 -1.8785734 0.099757955
5.4019745 -1.8811665 0.29978036
3.185066 -1.1097807 -0.65561971
5.3843854 -1.8771491 0.49887947
4.0902929 -1.4267925 -0.68612156
5.3827542 -1.878688 0.70001751
5.3939995 -1.8826128 -0.70147994
5.3803272 -1.8788944 0.90262686
5.4263338 -1.8960232 -0.50288864
5.3577771 -1.8731181 1.1032576
5.3808186 -1.8811735 -0.29873364
5.36015 -1.8749976 1.3110147
5.398049 -1.8893123 -0.099827765
5.3476903 -1.8727345 1.5182325
5.3834257 -1.8947474 0.099618336
5.3671172 -1.8900603 0.29821028
3.2033928 -1.1287212 -0.66019912
5.366526 -1.891958 0.4978336
4.0852876 -1.4410616 -0.68612156
5.3686759 -1.8948231 0.69904255
5.3724197 -1.8961445 -0.69953003
5.3681479 -1.8956905 0.90168826
5.3933824 -1.9056605 -0.50044827
5.3382491 -1.8872281 1.1005863
5.3720046 -1.9002165 -0.29862897
5.3407121 -1.8891476 1.3078654
5.3801106 -1.9041404 -0.099618336
5.3283733 -1.886876 1.5146091
5.3639245 -1.9078981 0.099374002
5.3683466 -1.9105265 0.29862897
3.1885353 -1.1353863 -0.65790942
5.3677298 -1.9124183 0.49853085
4.0804864 -1.454601 -0.68612156
5.3623629 -1.9126159 0.69904255
5.3679721 -1.9146165 -0.69977377
5.345088 -1.907506 0.89887244
5.3701461 -1.9175052 -0.49887947
5.3356591 -1.9062411 1.1013495
5.3581509 -1.9153312 -0.29821028
5.3344181 -1.9068476 1.3078654
5.3605864 -1.917257 -0.099374002
5.3020791 -1.8973752 1.508915
5.3361981 -1.9200975 0.098990049
5.3481538 -1.9254539 0.29789626
3.1677288 -1.1410771 -0.65447485
5.3456895 -1.9266748 0.49713636
4.0751276 -1.469547 -0.68612156
5.3310424 -1.9234986 0.69587395
5.349715 -1.9302359 -0.69831134
5.3269126 -1.9230594 0.89699522
5.3612081 -1.936498 -0.49870516
5.2954018 -1.9137733 1.0944804
5.3439191 -1.9313076 -0.29779159
5.3127324 -1.921085 1.3042662
5.3516429 -1.9362113 -0.099339097
5.2878233 -1.9141653 1.5068445
5.3110081 -1.9309497 0.098641001
5.3286009 -1.938399 0.29716356
3.1879105 -1.1603045 -0.65943589
5.3299104 -1.9409823 0.4962648
5.3153094 -1.9377668 0.69465526
5.3320946 -1.943886 -0.69684891
5.3130832 -1.9380058 0.89574375
5.3472704 -1.9515335 -0.49800791
5.2927147 -1.9326698 1.0952436
5.3149721 -1.9407972 -0.29653553
5.2953503 -1.9346797 1.3015668
5.3470709 -1.9546339 -0.099374002
5.2723751 -1.9283719 1.5042563
5.3064527 -1.9492405 0.098675906
5.3015224 -1.9484796 0.29601217
3.1877305 -1.1722248 -0.66019912
5.3028763 -1.9510786 0.49434737
5.2865012 -1.9471491 0.69173039
5.3069915 -1.9546962 -0.69441152
5.2917991 -1.9501494 0.8932408
5.3445082 -1.9706335 -0.49835654
5.2825928 -1.9488514 1.0944804
5.3066332 -1.9577203 -0.29643086
5.2706238 -1.9454809 1.2970678
5.310546 -1.9612702 -0.098815525
5.258703 -1.9431668 1.5021857
5.2962101 -1.9654351 0.098606096
5.2856701 -1.9625734 0.29548881
3.113892 -1.1568089 -0.64569764
5.2907745 -1.9665703 0.49382444
4.0603066 -1.5100145 -0.68612156
5.2762942 -1.9632846 0.69124292
5.2893175 -1.9681305 -0.69294909
5.2649394 -1.9601057 0.88979924
5.3006027 -1.9744363 -0.49487031
5.261384 -1.9608734 1.0914275
5.3057265 -1.9773995 -0.29674487
5.249536 -1.9575013 1.2934686
5.2815304 -1.9704818 -0.098396667
5.2323218 -1.9531629 1.4964917
5.277046 -1.9824601 0.098396667
5.270271 -1.9809646 0.29507012
3.1570009 -1.1872675 -0.65561971
5.2660548 -1.981478 0.49225564
4.0172382 -1.5123816 -0.67986419
5.272086 -1.9858486 0.69173039
5.277659 -1.9879478 -0.69246161
5.2459379 -1.9770449 0.88792202
5.270263 -1.9872628 -0.49277857
5.2332645 -1.9743551 1.0872297
5.2865338 -1.994452 -0.29611684
5.2452821 -1.9799348 1.2943684
5.286673 -1.9966129 -0.098641001
5.2009463 -1.9652738 1.4897624
5.2349202 -1.9864689 0.097733476
5.2487352 -1.9927593 0.29423275
3.1053286 -1.1796037 -0.64569764
5.250143 -1.9953908 0.49138408
4.0491286 -1.5397372 -0.68612156
5.2469182 -1.9962616 0.68929301
5.2710377 -2.0054382 -0.69246161
5.2393529 -1.9944301 0.88792202
5.2710917 -2.0075653 -0.49347582
5.2156811 -1.9875039 1.0849399
5.2649602 -2.0062823 -0.29527947
5.231404 -1.994541 1.2925688
5.2519973 -2.0034424 -0.098117429
5.1871812 -1.9797546 1.4876919
5.2260871 -2.0040141 0.097698571
5.236153 -2.0089224 0.29391873
3.1011921 -1.1904361 -0.64569764
5.2301262 -2.0087048 0.4901639
5.225095 -2.0088657 0.6873431
5.2454766 -2.0167017 -0.69002422
5.2194534 -2.0077424 0.88573194
5.2528952 -2.0216588 -0.49242995
5.2032153 -2.0035814 1.0837951
5.2296155 -2.0147954 -0.29370939
5.2134992 -2.0085863 1.2898693
5.2375085 -2.0188862 -0.09797781
5.1802389 -1.9978492 1.4876919
5.2212776 -2.0220556 0.097733476
5.2127013 -2.0197806 0.29297668
3.1631259 -1.2262606 -0.65943589
5.2308666 -2.0289194 0.49086114
4.0385542 -1.5672629 -0.68612156
5.2054512 -2.0211521 0.68563693
5.2165542 -2.0254632 -0.68709936
5.1980362 -2.0193172 0.88322899
5.2313059 -2.0332926 -0.49103545
5.1947128 -2.0201133 1.0834135
5.1949854 -2.0212632 -0.29213931
5.194097 -2.0209176 1.28672
5.2028326 -2.025362 -0.097454238
5.1573842 -2.0087064 1.4830331
5.1992898 -2.0344396 0.097454238
5.1944603 -2.0335953 0.29234865
3.1588262 -1.2372945 -0.65943589
5.2089123 -2.0413504 0.48946665
4.0330588 -1.5813505 -0.68612156
5.1891244 -2.0356855 0.68441823
5.2039083 -2.0414851 -0.68636814
5.1780842 -2.0323973 0.88103891
5.2204675 -2.0500843 -0.49068683
5.1803206 -2.0353622 1.081887
5.2012666 -2.0435919 -0.29287201
5.1706883 -2.0326195 1.2826709
5.1864264 -2.0398514 -0.097279713
5.1467457 -2.025282 1.4819979
5.1869354 -2.0494653 0.097349523
5.1895455 -2.0515439 0.29245332
3.0889827 -1.2217677 -0.64569764
5.1909986 -2.0542138 0.48842078
4.0277927 -1.594716 -0.68612156
5.1786542 -2.0514198 0.68393076
5.1934187 -2.0572685 -0.68588066
5.171316 -2.0495572 0.88103891
5.1914153 -2.0585717 -0.48859509
5.1589435 -2.0467376 1.0788341
5.1851787 -2.057146 -0.29234865
5.167542 -2.0511929 1.2835707
5.1796335 -2.057039 -0.097279713
5.1148668 -2.0323511 1.4747509
5.1716 -2.0663987 0.097209904
5.1742117 -2.0684896 0.29203464
3.0842687 -1.2336195 -0.64569764
5.147927 -2.0600662 0.48510886
4.0216398 -1.6101698 -0.68612156
5.15784 -2.0661221 0.68222458
5.1781101 -2.0742419 -0.68490571
5.1450722 -2.0620498 0.87791022
5.1723772 -2.074041 -0.48754922
5.1255374 -2.0562974 1.0734914
5.1657579 -2.0734802 -0.29172062
5.1487769 -2.0666642 1.2808713
5.1587073 -2.0716956 -0.09703538
5.1231586 -2.058458 1.4794097
5.1517378 -2.0783001 0.09696557
5.1469509 -2.0774136 0.29088324
3.0801609 -1.2438405 -0.64569764
5.13922 -2.0763797 0.48493455
5.1251961 -2.072795 0.67881224
5.1564809 -2.0854476 -0.6829558
5.1382059 -2.0791001 0.87791022
5.165471 -2.0911818 -0.48754922
5.1168706 -2.072546 1.0731098
5.1403432 -2.0830978 -0.2906739
5.1274467 -2.0778715 1.2772721
5.1573685 -2.0910452 -0.097140094
5.0966125 -2.0674476 1.4737156
5.1300017 -2.0893382 0.096686332
5.1215377 -2.0869333 0.28983653
3.0760193 -1.2540478 -0.64569764
5.1396855 -2.0964204 0.4856318
5.1219699 -2.0912801 0.67929972
5.1366723 -2.0972831 -0.68124963
5.1184824 -2.0908985 0.87572014
5.1621966 -2.1098071 -0.48789785
5.104518 -2.0872735 1.0719649
5.1282276 -2.0969685 -0.29035989
5.0952771 -2.0845329 1.2709735
5.1467046 -2.1066212 -0.097070285
5.0897285 -2.0843372 1.4737156
5.1304429 -2.1093801 0.096825951
5.1072007 -2.1008662 0.28941784
3.0718438 -1.2642414 -0.64569764
5.1013858 -2.1005566 0.4826685
5.1095009 -2.1059843 0.6785685
5.1241833 -2.112036 -0.68051841
5.096911 -2.1018359 0.87321718
5.1441211 -2.1223547 -0.48685198
5.08668 -2.0996947 1.0696752
5.1083225 -2.1086284 -0.28962718
5.0883366 -2.101418 1.2709735
5.1064239 -2.1099312 -0.096441998
5.0774327 -2.0989898 1.4721627
5.0857437 -2.1128263 0.096127855
5.0957777 -2.1180378 0.28920849
3.0671895 -1.2754918 -0.64569764
5.1212455 -2.1307201 0.48528318
5.1017477 -2.1246974 0.6785685
5.1072453 -2.1269869 -0.67929972
5.0837029 -2.1182236 0.87227858
5.1142398 -2.131995 -0.48476024
5.0644543 -2.1122783 1.0666223
5.0931862 -2.1242618 -0.28920849
5.0734065 -2.1170517 1.2691738
5.1005017 -2.1294034 -0.096476903
5.0465316 -2.1079059 1.4654334
5.0879299 -2.1335461 0.096302379
5.0905678 -2.135697 0.28931317
3.0629429 -1.2856559 -0.64569764
5.0737381 -2.1307194 0.48144832
5.083694 -2.1369882 0.67710607
5.1001639 -2.1439115 -0.67929972
5.0730089 -2.1335385 0.87165284
5.1053053 -2.14817 -0.48458593
5.0393273 -2.1214437 1.0628061
5.0713876 -2.1349403 -0.28837112
5.0555826 -2.1293256 1.2664744
5.0897267 -2.1447525 -0.096407093
5.0217127 -2.1171243 1.4602571
5.0635044 -2.1451594 0.095988235
5.0698336 -2.1488845 0.28858046
3.0582102 -1.2968735 -0.64569764
5.0622263 -2.1477449 0.4810997
5.0593831 -2.1486229 0.67491242
5.0666917 -2.1517267 -0.67588738
5.0597007 -2.1498002 0.87071423
5.0918968 -2.1645291 -0.484063
5.0224848 -2.1360576 1.060898
5.0561768 -2.1503868 -0.28795243
5.033399 -2.1417369 1.2628752
5.0652725 -2.1563435 -0.09609295
5.0228061 -2.1393006 1.4628452
5.061879 -2.1642973 0.09609295
5.051662 -2.1609717 0.28795243
3.0069654 -1.2869238 -0.63577557
5.0459185 -2.1605988 0.48022814
5.035809 -2.1583505 0.67271878
5.048581 -2.1638246 -0.67442495
5.0380199 -2.160339 0.86821128
5.0810289 -2.1798315 -0.48371437
5.0063533 -2.1488293 1.0589899
5.0416767 -2.1639908 -0.28753374
5.0119441 -2.152265 1.259276
5.070955 -2.1786542 -0.096337284
5.0068101 -2.1521306 1.4602571
5.0355547 -2.1749065 0.095743902
5.036374 -2.1763035 0.28753374
2.9986242 -1.296378 -0.63501234
5.0178503 -2.170378 0.47831072
5.0333295 -2.1791593 0.67344999
5.0278645 -2.1767932 -0.67271878
5.0228175 -2.1756492 0.86695981
5.0693491 -2.1968553 -0.48336575
5.0092512 -2.1718498 1.0612796
5.018672 -2.176975 -0.28669637
4.9968708 -2.1675182 1.2574764
5.0354198 -2.1852841 -0.095813711
4.9793962 -2.1620037 1.454563
5.019149 -2.1875982 0.095569378
5.0272987 -2.1921944 0.28742907
3.0446938 -1.328296 -0.64569764
5.0033214 -2.1838178 0.47761347
5.0206183 -2.1934542 0.67271878
5.0224374 -2.1942489 -0.67296251
4.9956649 -2.1835907 0.86351825
5.0364796 -2.2024778 -0.48092539
4.9768406 -2.1774322 1.055937
5.0150846 -2.1952073 -0.28690571
4.9860852 -2.1825137 1.2565766
5.0226503 -2.1995636 -0.095708997
4.9527352 -2.1699761 1.448869
5.0019463 -2.2019512 0.095394854
5.0174023 -2.2098007 0.2873244
2.9895008 -1.3172806 -0.63501234
4.9879913 -2.1989265 0.47691622
4.9961999 -2.2046284 0.67052513
5.0067111 -2.2103106 -0.67198756
4.9767854 -2.1970994 0.86164103
5.0247282 -2.2193126 -0.48057677
4.9742137 -2.1980391 1.0570818
4.9996983 -2.2103435 -0.28648702
4.966975 -2.1969131 1.2538772
5.0108971 -2.21634 -0.095639187
4.9571149 -2.1935864 1.4524925
4.9873068 -2.2152791 0.095255234
4.993233 -2.2199986 0.28638235
3.0351108 -1.3500491 -0.64569764
4.9875664 -2.2195646 0.47761347
4.9707269 -2.2131102 0.66808774
4.9848472 -2.2204395 -0.67003765
4.9672815 -2.2136541 0.86132816
5.0315084 -2.2433293 -0.48197126
4.9435871 -2.204129 1.0521208
4.9813969 -2.2220291 -0.28585899
4.9561033 -2.2117837 1.2529774
4.9994782 -2.2321873 -0.095569378
4.9229696 -2.199058 1.4447279
4.9758943 -2.2310383 0.095185425
4.9585091 -2.2242828 0.28481227
3.0306172 -1.3601065 -0.64569764
4.9801786 -2.2360918 0.47761347
4.9611608 -2.2296341 0.667844
4.9625821 -2.231314 -0.66808774
4.9581118 -2.229304 0.8610153
4.9804333 -2.2403854 -0.47778778
4.9448146 -2.2254006 1.0540289
4.9663256 -2.2361239 -0.28544031
4.9288079 -2.2202661 1.2480284
4.9719928 -2.2397195 -0.095185425
4.9279789 -2.2209273 1.4483514
4.9630027 -2.2450541 0.09508071
4.956173 -2.2440491 0.28512629
2.9757779 -1.3479945 -0.63501234
4.9632692 -2.2493501 0.47674191
4.946508 -2.2427947 0.66686905
4.9479243 -2.244478 -0.66711279
4.9323118 -2.2384339 0.85788661
4.9725826 -2.2577567 -0.47778778
4.9195315 -2.2336694 1.0502127
4.9443355 -2.2459723 -0.28460293
4.9231923 -2.2374047 1.2484784
4.9350185 -2.2438185 -0.094626948
4.8990948 -2.2285169 1.4421397
4.9405832 -2.2557203 0.094801472
4.9323539 -2.2530035 0.28418424
2.9712915 -1.3578551 -0.63501234
4.9394749 -2.2583405 0.47517311
4.9440643 -2.2625257 0.66760026
4.936844 -2.2592215 -0.66662531
4.9140853 -2.2498439 0.85600939
4.9578226 -2.2709152 -0.47709054
4.9099198 -2.2500103 1.0498311
4.9364655 -2.2632176 -0.28460293
4.9188949 -2.2562011 1.2493782
4.9366387 -2.2643398 -0.094801472
4.8741197 -2.2366934 1.4369633
4.9112802 -2.2620528 0.094382614
4.9317146 -2.2735516 0.28460293
2.9344436 -1.3534181 -0.62814321
4.9279436 -2.2738992 0.47482449
4.9167088 -2.2697561 0.66491914
4.9289278 -2.2764405 -0.66662531
4.9044087 -2.266155 0.85569652
4.9281634 -2.278175 -0.4749988
4.8774827 -2.2547465 1.0444884
4.9253077 -2.2778983 -0.28439359
4.8866257 -2.2610437 1.2430795
4.9178165 -2.2765179 -0.094592043
4.8750474 -2.2577528 1.4395515
4.9102093 -2.2834112 0.094522233
4.9074505 -2.2831701 0.28366088
2.9475004 -1.3719376 -0.63195939
4.9163639 -2.2894049 0.47447586
4.8939627 -2.2810525 0.66296923
4.9061583 -2.2877792 -0.6646754
4.9000491 -2.2849304 0.85632226
4.9382368 -2.303787 -0.47674191
4.8656279 -2.2709476 1.0437252
4.8807319 -2.2790346 -0.28230015
4.8853681 -2.2822381 1.2448791
4.9062165 -2.2919776 -0.094522233
4.8426348 -2.2633047 1.4323046
4.8971789 -2.2971338 0.094417519
4.8831796 -2.2926471 0.28271884
2.9426935 -1.382218 -0.63195939
4.8921135 -2.2989259 0.47290706
4.888168 -2.2981135 0.66321297
4.8823779 -2.2964319 -0.66248175
4.8705949 -2.291928 0.85256783
4.9049283 -2.3091298 -0.47430155
4.8616229 -2.2887426 1.0444884
4.8912163 -2.3037174 -0.28334687
4.8530933 -2.2867969 1.2385805
4.8873334 -2.3039734 -0.094312804
4.8556721 -2.2900837 1.4385163
4.8688464 -2.3056531 0.094033566
4.8625125 -2.3036927 0.28198613
2.891725 -1.3706188 -0.62203732
4.869657 -2.3091593 0.47151257
3.7354255 -1.7721128 -0.65483467
4.863572 -2.3083536 0.66101932
4.8685487 -2.3117569 -0.66175053
4.8482894 -2.3021371 0.85006488
4.9004373 -2.3279469 -0.47465018
4.8461089 -2.303175 1.042962
4.8683099 -2.314768 -0.28250949
4.8411596 -2.3028948 1.2376807
4.8557859 -2.3098523 -0.093859042
4.8162497 -2.2920762 1.4291988
4.8557605 -2.3192006 0.093928851
4.8598473 -2.3232363 0.28230015
2.886923 -1.3807045 -0.62203732
4.8417971 -2.3166841 0.46959514
3.6653798 -1.7537966 -0.64357139
4.857681 -2.3253262 0.66126306
4.8501136 -2.3227444 -0.6602881
4.8330981 -2.3156326 0.84881341
4.8743149 -2.3364265 -0.47290706
4.8278223 -2.314141 1.0406723
4.8660098 -2.3334901 -0.28282351
4.8334963 -2.318936 1.2376807
4.8603129 -2.3328452 -0.094103376
4.8029951 -2.3063654 1.4276459
4.823811 -2.3256925 0.093475089
4.8409145 -2.33498 0.28167212
2.8785496 -1.3890668 -0.62127409
4.8588002 -2.345698 0.4720355
3.6340245 -1.7551914 -0.63919122
4.8366141 -2.3370693 0.65955689
4.8487166 -2.3439612 -0.66126306
4.8232071 -2.3316294 0.84850054
4.8697169 -2.3551617 -0.47325568
4.8016356 -2.3232695 1.0368561
4.8250655 -2.3356454 -0.28093941
4.8109334 -2.329841 1.2340815
4.8269436 -2.3375945 -0.093614708
4.7896995 -2.32059 1.4260929
4.8160722 -2.3416761 0.093475089
4.8255509 -2.3483678 0.28125343
2.9372291 -1.4300449 -0.63501234
4.8470002 -2.3608991 0.47168688
4.8074236 -2.3426602 0.65663202
4.8302111 -2.3548079 -0.65980063
4.8150388 -2.3484514 0.84850054
4.8471414 -2.3651561 -0.47186119
4.7886117 -2.3365967 1.0357112
4.8083196 -2.3472522 -0.28041605
4.7961766 -2.3423611 1.2322819
4.8151611 -2.3526737 -0.093544899
4.7746275 -2.3339015 1.4240224
4.8136669 -2.360275 0.093579803
4.8127701 -2.3608773 0.28093941
2.8692737 -1.4081274 -0.62127409
4.8324055 -2.3726024 0.47098963
4.8031918 -2.3603403 0.6571195
4.7974354 -2.3585512 -0.65638828
4.8005463 -2.3600805 0.84724906
4.8289601 -2.3750961 -0.47081532
4.7843601 -2.354197 1.0364745
4.7825904 -2.3543631 -0.27936933
4.767404 -2.347921 1.2268831
4.7880129 -2.3580708 -0.093160946
4.7672718 -2.3488899 1.4240224
4.7914731 -2.3691341 0.093300565
4.7812291 -2.3661463 0.27957868
2.8889729 -1.4303297 -0.62661674
4.8133818 -2.3841502 0.46994376
4.8006743 -2.3788995 0.65785072
4.7895878 -2.3744471 -0.65638828
4.7710427 -2.3662908 0.84349464
4.8170705 -2.3901667 -0.4704667
4.7694923 -2.3665591 1.034948
4.7747568 -2.3702098 -0.27936933
4.7561011 -2.3619838 1.2259832
4.7797525 -2.3747697 -0.093160946
4.7434742 -2.3577776 1.4193636
4.7809683 -2.385787 0.09326566
4.79081 -2.3917426 0.2806254
2.8839625 -1.4404054 -0.62661674
4.7836429 -2.3902509 0.46785203
4.7741685 -2.3875997 0.65541333
4.7808529 -2.3919858 -0.65638828
4.7627538 -2.3829304 0.84349464
4.7944446 -2.3998325 -0.46907221
4.7467428 -2.3769917 1.031895
4.780323 -2.3948511 -0.28020671
4.7491542 -2.3802731 1.2264331
4.7732216 -2.3923357 -0.09319585
4.7248536 -2.3691256 1.4162578
4.7480221 -2.3890447 0.092776993
4.7610262 -2.397671 0.27936933
2.878917 -1.4504635 -0.62661674
4.7930618 -2.415902 0.46959514
4.7538173 -2.3971617 0.65370716
4.7640328 -2.403356 -0.65516959
4.7508798 -2.3977609 0.8428689
4.7718102 -2.4093695 -0.46767772
4.7248141 -2.3856404 1.0288421
4.7545279 -2.4016849 -0.27915999
4.736017 -2.3933719 1.2250834
4.7648417 -2.4089828 -0.09319585
4.7131073 -2.3838601 1.4152225
4.7321019 -2.4028096 0.092637373
4.7490664 -2.4124663 0.27915999
2.887838 -1.4676197 -0.62966968
4.7917036 -2.4362301 0.47029239
4.7361533 -2.4100678 0.65248846
4.7503069 -2.4172701 -0.65443837
4.7354395 -2.4107452 0.84161742
4.75982 -2.4242031 -0.46732909
4.7195371 -2.4047242 1.0296053
4.7278992 -2.4100245 -0.27811327
4.7202689 -2.407173 1.2232838
4.7546223 -2.424692 -0.093160946
4.6995948 -2.3976635 1.4136696
4.7294478 -2.4212224 0.092742088
4.7192863 -2.4180997 0.27790393
2.833779 -1.4526153 -0.61898438
4.7831704 -2.4529415 0.47029239
4.7122393 -2.4176049 0.65029482
4.7224136 -2.423866 -0.65175725
4.7182094 -2.4227487 0.84005308
4.751329 -2.4408032 -0.46732909
4.6923274 -2.4104935 1.0254075
4.7092229 -2.4202118 -0.27748524
4.6914635 -2.4121199 1.217885
4.7407949 -2.4385299 -0.093056231
4.6929146 -2.4149375 1.4141873
4.7116586 -2.4339516 0.092567564
4.7072682 -2.4327244 0.27769458
2.7938121 -1.4444649 -0.61135202
4.7321067 -2.4476544 0.46610891
4.7033467 -2.4348599 0.65029482
4.7117352 -2.4402453 -0.65151351
4.6834124 -2.4255767 0.83536004
4.7357039 -2.4537072 -0.46663185
4.695662 -2.434 1.0280789
4.7056399 -2.4402141 -0.27779926
4.6860507 -2.4310936 1.2187848
4.7109535 -2.444013 -0.092637373
4.670739 -2.4241847 1.4100462
4.7035615 -2.4495626 0.092567564
4.704061 -2.4519105 0.2780086
2.8200872 -1.4705477 -0.61822115
4.7129352 -2.4586285 0.46506304
4.6987662 -2.4522802 0.65078229
4.6965785 -2.4521815 -0.65053856
4.6784188 -2.4437392 0.83598578
4.737705 -2.4757595 -0.46767772
4.6649447 -2.4377376 1.0231178
4.693982 -2.4539545 -0.27758991
4.6693291 -2.442104 1.2165353
4.6970782 -2.4576612 -0.092532659
4.6451331 -2.4315147 1.4048698
4.6825897 -2.4594572 0.09232323
4.6835281 -2.4609931 0.2772759
2.8082441 -1.4762373 -0.61669467
4.6624345 -2.4519866 0.46087957
4.6849077 -2.4658933 0.65005108
4.6844772 -2.4667109 -0.65005108
4.6528107 -2.4500362 0.83285709
4.7012649 -2.476599 -0.46488873
4.6494598 -2.4503451 1.0215914
4.6871543 -2.4712561 -0.27769458
4.6590524 -2.457479 1.2160854
4.6906712 -2.4741567 -0.092567564
4.6336272 -2.4451019 1.4038345
4.6514337 -2.4628074 0.091869467
4.6660852 -2.4726507 0.27675254
2.8134814 -1.4915484 -0.61898438
4.6608877 -2.4719807 0.46157681
4.6556622 -2.4702505 0.64712621
4.6622445 -2.4747859 -0.64810117
4.6634212 -2.4764538 0.83629865
4.6961104 -2.4948639 -0.46523735
4.6257046 -2.45746 1.0181568
4.6824608 -2.4886604 -0.27790393
4.6474362 -2.4710857 1.2151856
4.6855371 -2.4923933 -0.092637373
4.625064 -2.4612614 1.4038345
4.6370844 -2.4770126 0.091764753
4.645095 -2.4823339 0.27601983
2.8047951 -1.4995089 -0.61822115
4.645203 -2.4844765 0.46087957
3.4712484 -1.8573687 -0.62354778
4.6413266 -2.4844872 0.646395
4.6443928 -2.4871715 -0.64688247
4.6408172 -2.4852567 0.8337957
4.6908855 -2.5131229 -0.46558598
4.6114753 -2.4716152 1.0170119
4.6909098 -2.5152438 -0.27895065
4.6177408 -2.4770486 1.2097868
4.6556624 -2.4973905 -0.092218516
4.6113377 -2.4746504 1.4022816
4.6411696 -2.4990124 0.092009087
4.63816 -2.4994806 0.27612451
2.7511566 -1.4832039 -0.60753584
4.650531 -2.5082425 0.46227406
4.6260742 -2.4960942 0.64542004
4.6361196 -2.5025592 -0.64688247
4.6182087 -2.493932 0.83129275
4.6715669 -2.5237998 -0.46454011
4.6136176 -2.4924929 1.0193017
4.6684868 -2.5231885 -0.27811327
4.6026444 -2.4886405 1.2079872
4.6416399 -2.5107724 -0.092113801
4.5924773 -2.4852154 1.3991758
4.6144071 -2.5064615 0.091660039
4.6188775 -2.5099339 0.27549647
2.7459625 -1.4927981 -0.60753584
4.6242444 -2.5149415 0.46053094
4.6238687 -2.516829 0.646395
4.6234293 -2.517636 -0.646395
4.5921267 -2.5005905 0.82816406
4.6347349 -2.5248411 -0.46175113
4.5923841 -2.5028094 1.0166303
4.6416719 -2.5307217 -0.27706655
4.586649 -2.5017608 1.2061876
4.6310919 -2.5260019 -0.092078896
4.568512 -2.4929028 1.394517
4.6095781 -2.5236703 0.091729848
4.622349 -2.5327597 0.27622918
2.7923819 -1.5306853 -0.61898438
4.6084497 -2.5272358 0.4598337
3.4519386 -1.8930146 -0.62354778
4.6172375 -2.5331032 0.64663874
4.6150551 -2.532954 -0.646395
4.5868331 -2.5185062 0.8287898
4.6433561 -2.5505963 -0.46349424
4.5737348 -2.5123533 1.0143406
4.6192512 -2.538405 -0.27622918
4.5851584 -2.5207121 1.2079872
4.6082288 -2.5344427 -0.091799658
4.5563972 -2.5069721 1.3934817
4.5845429 -2.5318478 0.091415705
4.5890051 -2.5353573 0.27476377
2.7354739 -1.511932 -0.60753584
4.5926255 -2.5394504 0.45913645
3.4449771 -1.9056539 -0.62354778
4.5714479 -2.5298245 0.64152022
4.5935835 -2.5431216 -0.64468883
4.5780139 -2.5345019 0.8287898
4.6274529 -2.5629278 -0.46279699
4.5541922 -2.523391 1.0120509
4.6064227 -2.5533818 -0.27601983
4.5724802 -2.5356105 1.2070874
4.6168419 -2.5602108 -0.092148706
4.5493078 -2.5237988 1.3939994
4.5813637 -2.5499543 0.091520419
4.5661686 -2.5435849 0.27392639
2.7301796 -1.5214714 -0.60753584
4.5767723 -2.5515855 0.45843921
3.4386388 -1.9170674 -0.62354778
4.5612999 -2.5440031 0.64127648
4.5747239 -2.5525371 -0.64322639
4.5605147 -2.5456527 0.82722545
4.6080411 -2.5732366 -0.46175113
4.5475134 -2.5394366 1.0124325
4.5159799 -2.5228616 -0.27110025
4.5419324 -2.5384002 1.2012386
4.5747143 -2.5577693 -0.091485515
4.5337263 -2.5358912 1.3919288
4.5632683 -2.5618341 0.091345895
4.5537792 -2.5575523 0.27371705
2.7248521 -1.5309923 -0.60753584
4.5799955 -2.5743796 0.45965939
3.4315893 -1.9296577 -0.62354778
4.5554053 -2.5626506 0.64176396
4.5554053 -2.5626506 -0.64176396
4.5309431 -2.5499305 0.82347102
4.5851417 -2.5814863 -0.46035663
4.5347542 -2.55416 1.0116693
4.210896 -2.372718 -0.25330603
4.529203 -2.5531163 1.2003388
4.579694 -2.5815782 -0.091764753
4.523164 -2.5507525 1.3914112
4.5338625 -2.565136 0.090927038
4.53961 -2.57048 0.27340304
2.7604887 -1.563718 -0.61669467
4.5519139 -2.5795457 0.45774196
3.4251715 -1.9410267 -0.62354778
4.5365209 -2.5718687 0.64030153
4.5447055 -2.577557 -0.64152022
4.5220146 -2.5657309 0.82347102
4.1065367 -2.3309418 -0.41311822
4.5211372 -2.5662764 1.0105244
4.2012679 -2.3856825 -0.25320136
4.5156284 -2.565234 1.1989891
4.5428379 -2.58174 -0.091206276
4.490721 -2.5531584 1.3841643
4.5209567 -2.5797541 0.090857228
4.5375479 -2.5902712 0.27382172
2.6902297 -1.5363474 -0.60219319
4.5290422 -2.5875123 0.45634747
3.4180342 -1.9535675 -0.62354778
4.527064 -2.5884786 0.64030153
4.1147887 -2.3537014 -0.58204798
4.5096016 -2.5795385 0.82284529
4.0793532 -2.3343769 -0.41120079
4.492959 -2.5721006 1.0063266
4.1682316 -2.3871687 -0.25173595
4.5197231 -2.5895175 1.2025883
4.528593 -2.5945994 -0.091101562
4.4851336 -2.5707398 1.3851995
4.5019759 -2.588751 0.090647799
4.5128989 -2.5971285 0.27287968
2.7086705 -1.5594424 -0.60753584
4.5372475 -2.6132497 0.45809058
3.4115372 -1.9648914 -0.62354778
4.5012554 -2.5935662 0.63786414
4.0708444 -2.3465153 -0.57692947
4.4954362 -2.5923038 0.82190668
4.0539217 -2.3386464 -0.40945768
4.4776027 -2.5830616 1.0048002
4.142994 -2.3909947 -0.25068923
4.4942345 -2.5947475 1.1980893
4.5212402 -2.6113915 -0.091136466
4.4644238 -2.5796146 1.3815761
4.4842619 -2.5994357 0.090473275
4.4973506 -2.6080718 0.27246099
2.6695209 -1.5487124 -0.59990348
4.5182175 -2.6222807 0.45704471
3.4046577 -1.9767879 -0.62354778
4.4904582 -2.6082656 0.6376204
4.0368833 -2.3457508 -0.57327339
4.4765673 -2.6012422 0.82002947
4.0392542 -2.3480716 -0.40876043
4.4719531 -2.6006495 1.0055634
4.0862847 -2.3773198 -0.24775842
4.4817812 -2.608459 1.1971895
4.5004576 -2.6193289 -0.090892133
4.4658619 -2.6002373 1.3846819
4.4842507 -2.6193348 0.090647799
4.4778739 -2.6177067 0.27183296
2.6708775 -1.5619857 -0.60142995
4.5055972 -2.6360241 0.45669609
3.3980837 -1.9880673 -0.62354778
4.4817842 -2.6231422 0.6376204
4.0085258 -2.3470883 -0.57034853
4.4623465 -2.6138572 0.81909086
4.0086864 -2.3490618 -0.40649438
4.4599167 -2.6134796 1.0048002
4.0232422 -2.3585348 -0.24440892
4.4478918 -2.6085192 1.190441
4.4774889 -2.6269271 -0.090612894
4.4284348 -2.5991863 1.375882
4.4621004 -2.6294271 0.090403465
4.46997 -2.6351157 0.27193763
2.6651346 -1.5717645 -0.60142995
4.4838934 -2.6454333 0.45547591
3.390425 -2.0011003 -0.62354778
4.4665509 -2.6373037 0.63688919
3.9977749 -2.361453 -0.57010479
4.4442322 -2.6251717 0.81752651
3.9863275 -2.3556297 -0.40509989
4.4464688 -2.6285869 1.0040369
3.9969652 -2.3637986 -0.2433622
4.4495834 -2.6325246 1.1935903
4.4575044 -2.637211 -0.090403465
4.4172161 -2.6144159 1.3753644
4.451637 -2.6431886 0.090368561
4.4590275 -2.6496824 0.27183296
2.6393809 -1.5690195 -0.59685054
4.4575073 -2.6508849 0.4537328
3.2988791 -1.9618473 -0.60790433
4.4424267 -2.6429662 0.63469554
3.9796871 -2.3686056 -0.56864236
4.4350416 -2.640669 0.81752651
3.9695218 -2.3644323 -0.40422833
4.4259207 -2.6362847 1.0013656
3.9633684 -2.3617043 -0.24179212
4.427438 -2.6392828 1.1899911
4.4568591 -2.6578756 -0.090577989
4.399768 -2.6248701 1.3727762
4.4492469 -2.6628193 0.09050818
4.4502163 -2.6644545 0.27183296
2.6510058 -1.5878513 -0.60066672
4.4606556 -2.6728205 0.45495298
3.3767255 -2.0241317 -0.62354778
4.4348765 -2.659478 0.63493928
3.959479 -2.3753344 -0.56693619
4.4313422 -2.6584102 0.81846512
3.9599509 -2.3765574 -0.40405402
4.4082754 -2.6466652 0.99945752
3.9208571 -2.3549573 -0.23969868
4.4248798 -2.658736 1.1917907
4.4497348 -2.6736704 -0.090612894
4.3579245 -2.6195405 1.3624235
4.4266925 -2.669298 0.090228941
4.4203684 -2.6675891 0.27057689
2.6420856 -1.595066 -0.59990348
4.4325383 -2.6770445 0.45303555
3.3699947 -2.0353182 -0.62354778
4.4209358 -2.6710903 0.63420806
3.9413871 -2.3822903 -0.56547375
4.4135837 -2.6687517 0.81690078
3.9550406 -2.3924282 -0.40440265
4.4011543 -2.6622852 0.99983914
3.9130262 -2.3679464 -0.23969868
4.3927 -2.6592659 1.1854921
4.4284016 -2.6819353 -0.090368561
4.3256224 -2.620722 1.3551765
4.423714 -2.6896603 0.090368561
4.4178554 -2.6871544 0.27099558
2.6130214 -1.5899915 -0.59456083
4.4401854 -2.7028604 0.45477867
3.3625122 -2.0476561 -0.62354778
4.4145066 -2.6893414 0.63469554
3.9326291 -2.3967202 -0.56547375
4.4008676 -2.6820857 0.81627504
3.9398607 -2.4020706 -0.4037054
4.3679017 -2.6640863 0.99449648
3.9111408 -2.3864337 -0.24011737
4.3746071 -2.6702716 1.1832425
4.3985308 -2.6848747 -0.089949703
4.2504977 -2.5955332 1.334471
4.4011288 -2.6959587 0.090089322
4.3897182 -2.6910768 0.26984419
2.6174969 -1.6052612 -0.59685054
4.3882674 -2.6922953 0.45042088
3.2950887 -2.0216069 -0.6122845
4.4021804 -2.7018889 0.63420806
3.922968 -2.4087094 -0.56523001
4.3780129 -2.6891601 0.81377209
3.9212668 -2.4095501 -0.40265953
4.3423163 -2.6682777 0.9906803
3.9100115 -2.4035741 -0.24053605
4.3258887 -2.6602638 1.1724449
4.397648 -2.7054511 -0.090124227
4.2808973 -2.6346556 1.3468943
4.3759058 -2.7026145 0.089775179
4.4023863 -2.7200307 0.27120493
2.6352575 -1.6288392 -0.60219319
4.399178 -2.7201708 0.45251262
3.287657 -2.0336704 -0.6122845
4.3871839 -2.7148718 0.63347685
3.9179122 -2.4244776 -0.56571749
4.3685993 -2.7044258 0.81377209
3.912832 -2.4232232 -0.40265953
4.360879 -2.7017526 0.99716781
3.8994781 -2.4168367 -0.24043138
4.253173 -2.637079 1.1553486
4.3847784 -2.7186778 -0.090054417
4.2404824 -2.6302352 1.3370592
4.3567323 -2.7107721 0.08956575
4.3640424 -2.717434 0.2694255
2.5795642 -1.6068869 -0.59074465
4.365983 -2.7207578 0.45007226
3.2976599 -2.0550089 -0.61541319
4.3579423 -2.7168032 0.63055198
3.9026878 -2.433937 -0.56474254
4.3541046 -2.7165218 0.81283348
3.9128005 -2.4421414 -0.40353109
4.3335754 -2.7047645 0.99297001
3.8745007 -2.4191766 -0.23938466
4.3253922 -2.7017554 1.1773938
4.3820451 -2.7382057 -0.090194036
4.1968748 -2.623517 1.3261888
4.3518495 -2.7299101 0.089670464
4.3528385 -2.7315892 0.26932083
2.6304729 -1.6513724 -0.60371966
4.3632082 -2.7402199 0.4507695
3.2733793 -2.0565728 -0.6122845
4.3546782 -2.7369829 0.63152694
3.8870188 -2.4439982 -0.56376758
4.3412511 -2.7296009 0.81220774
3.9025655 -2.4547239 -0.40335678
4.2206101 -2.6558029 0.9693097
3.8842007 -2.4450651 -0.24053605
4.2297121 -2.6635919 1.1539989
4.3623075 -2.7470916 -0.089984608
4.2007677 -2.6463887 1.3303299
4.3292493 -2.7357803 0.089391226
4.3263967 -2.7360915 0.26827411
2.5682832 -1.6248563 -0.59074465
4.3519329 -2.7543682 0.45059519
3.1597153 -1.9998055 -0.59226088
4.3220975 -2.7365418 0.6281146
3.8822468 -2.458999 -0.56425506
4.2799699 -2.711962 0.80250881
3.8939732 -2.4683315 -0.40335678
4.2349944 -2.6844997 0.97465235
3.8659509 -2.4515145 -0.23990802
4.2060461 -2.6682084 1.1499498
4.2378806 -2.6894408 -0.08761108
4.230647 -2.6858861 1.3427532
4.309553 -2.7444307 0.089181797
4.3172997 -2.7504233 0.26827411
2.5893706 -1.6502464 -0.59685054
4.3444552 -2.7698556 0.4507695
3.3192615 -2.1170469 -0.62354778
4.233866 -2.7014274 0.61665888
3.8736396 -2.4725356 -0.56425506
4.230991 -2.7006322 0.79499995
3.882408 -2.4790862 -0.40300815
4.202435 -2.68447 0.9693097
3.8775657 -2.4779 -0.24116409
4.2344705 -2.7070156 1.1602975
4.0941519 -2.6173127 -0.084818695
4.2168345 -2.6967782 1.3412003
4.1135996 -2.6388567 0.085307363
4.1984262 -2.6953417 0.26147044
2.5571638 -1.6423003 -0.59074465
4.2475955 -2.7290021 0.4417053
3.2058594 -2.0597058 -0.60352417
4.1681074 -2.6789603 0.60837176
3.8771072 -2.4928826 -0.56596123
4.180004 -2.6886689 0.78717823
3.8871346 -2.5012482 -0.40440265
4.1836039 -2.6920168 0.96701999
3.8760449 -2.4950691 -0.24158277
4.2008942 -2.7052166 1.153549
4.1152501 -2.6510812 -0.085446982
4.2561108 -2.7428762 1.3567294
4.1072584 -2.6560879 0.085377172
4.1235915 -2.667671 0.25738823
2.5514155 -1.6512164 -0.59074465
4.2163015 -2.729736 0.43943925
3.1850247 -2.0628513 -0.60102121
4.1682563 -2.7006957 0.60983419
3.8712758 -2.5092356 -0.56644871
4.2004307 -2.7225831 0.79280987
3.8800517 -2.5158856 -0.40457696
4.2099449 -2.7308373 0.97541558
3.8584969 -2.5038227 -0.24105941
4.1353766 -2.6845189 1.1382523
4.1143574 -2.6708741 -0.085621506
4.1881837 -2.7198383 1.3380945
4.1168591 -2.6816994 0.085761125
4.1008693 -2.6733231 0.25655086
2.5357693 -1.6536779 -0.58845494
4.1917291 -2.7346393 0.43787045
3.214564 -2.0971472 -0.60790433
4.1892005 -2.7340321 0.61422149
3.8562849 -2.5177185 -0.56547375
4.184286 -2.7329079 0.79155839
3.8779177 -2.5337734 -0.4052742
4.2222319 -2.7587431 0.98037662
3.8668908 -2.5275317 -0.24210613
4.1460238 -2.7110155 1.1436512
4.0815807 -2.6698943 -0.085132839
4.0832904 -2.6720304 1.3075538
4.0969733 -2.6901849 0.085551696
4.2250586 -2.7753448 0.26492461
2.5299815 -1.6625194 -0.58845494
4.1338767 -2.7175155 0.43281542
3.157342 -2.0763534 -0.59851826
4.1327166 -2.7188194 0.60739681
3.8652713 -2.54384 -0.56815488
4.1813213 -2.751841 0.79280987
3.87737 -2.5527724 -0.40614576
4.1645443 -2.7428835 0.9693097
3.8692755 -2.5493797 -0.24283884
4.0726031 -2.6843672 1.126105
4.2570756 -2.8070242 -0.089007273
4.0513592 -2.6713792 1.3003069
4.0658776 -2.6901253 0.085097934
4.1166058 -2.7257553 0.25874897
2.5241628 -1.6713405 -0.58845494
4.1758579 -2.7660367 0.43821907
3.1401949 -2.080815 -0.59664105
4.1265101 -2.7354223 0.60788428
3.8696032 -2.5660935 -0.57010479
4.1728533 -2.7682399 0.79312274
3.8817178 -2.5751027 -0.40754025
4.1173209 -2.7324351 0.96053248
3.8803202 -2.5761267 -0.2440949
4.0339881 -2.6791605 1.1180067
4.2489169 -2.8229737 -0.089042178
4.0737188 -2.7075972 1.3106596
4.1978896 -2.7985859 0.088064843
4.0693268 -2.7139036 0.25634151
2.5052481 -1.6714246 -0.585402
4.1081755 -2.7418848 0.43211817
3.1099125 -2.0764073 -0.59226088
4.1185873 -2.7509124 0.60812802
3.8771277 -2.5906139 -0.57254218
4.0744821 -2.7235106 0.77622782
3.8859567 -2.5974944 -0.40893474
4.0783818 -2.7271473 0.95366336
3.887905 -2.6007607 -0.24514162
4.0440462 -2.706231 1.1234056
4.239037 -2.837788 -0.089042178
4.080771 -2.7318381 1.315836
4.2080148 -2.8266026 0.088483701
4.0962992 -2.7525988 0.2586443
2.4993985 -1.6801594 -0.585402
4.0820463 -2.7450901 0.43037506
3.1026456 -2.0872502 -0.59226088
4.1073128 -2.7641639 0.60788428
3.8828813 -2.6141093 -0.57473582
4.0731426 -2.743234 0.77779216
3.9000017 -2.6266248 -0.41137511
4.0623247 -2.7369789 0.95213689
3.8887401 -2.6210138 -0.24576965
4.0442697 -2.7268675 1.126105
4.224132 -2.849213 -0.088937463
4.0632024 -2.7406646 1.3132478
4.1931542 -2.8379117 0.088378986
4.0382269 -2.7351131 0.25560881
2.4870164 -1.6844698 -0.58387553
4.0872841 -2.7693806 0.43194386
3.0953408 -2.0980678 -0.59226088
4.0434201 -2.74172 0.59984091
3.8918035 -2.6399051 -0.57741695
4.0901795 -2.7744683 0.78279806
3.9419174 -2.6749032 -0.41677876
4.0494974 -2.7489371 0.95137365
4.0811463 -2.7714621 -0.25853962
4.0298906 -2.7376828 1.1247553
4.2174685 -2.8661886 -0.089007273
4.0595205 -2.7598831 1.3153184
4.1865268 -2.8547844 0.088448796
4.1248308 -2.8137688 0.26167978
2.4649049 -1.6820746 -0.58005935
4.0562005 -2.7690276 0.42967781
3.0879983 -2.1088597 -0.59226088
4.0633289 -2.7759738 0.6042282
4.0677611 -2.7800432 -0.60495942
4.0571535 -2.7738326 0.7784179
4.2022924 -2.8730625 -0.44536585
4.0463591 -2.767489 0.95290012
4.1868324 -2.8646378 -0.26586666
4.0203098 -2.751733 1.1247553
4.1793883 -2.8616869 -0.088413891
4.0482682 -2.772945 1.3148007
4.1732399 -2.867116 0.088378986
4.1693015 -2.8654816 0.26513395
2.4622539 -1.692893 -0.58082258
4.0530765 -2.7876859 0.43037506
3.0806182 -2.119626 -0.59226088
4.0356272 -2.7777599 0.60154708
4.0874618 -2.8144897 -0.60934672
4.0560677 -2.7928728 0.77998224
4.2184907 -2.9057973 -0.44815483
4.0431405 -2.7860525 0.95442659
4.1899627 -2.8883036 -0.26670403
4.0636209 -2.8022577 1.139602
4.1841879 -2.8864779 -0.088728034
4.0719538 -2.8101018 1.3256711
4.1500524 -2.8725611 0.088099748
4.1658419 -2.8845657 0.26555264
2.4531018 -1.6992417 -0.58005935
4.1661436 -2.8869266 0.44344842
3.0407315 -2.1078586 -0.58600351
4.0552688 -2.8121918 0.60593438
4.1037093 -2.8468444 -0.61324654
4.0365557 -2.8002583 0.77810503
4.1821324 -2.9023298 -0.44536585
4.0559687 -2.8158233 0.95976925
4.1650911 -2.8926581 -0.26576199
4.0666177 -2.8253204 1.1432013
4.1708027 -2.8987834 -0.088658225
4.0557753 -2.8198872 1.3236006
4.1383598 -2.8858861 0.088064843
4.142643 -2.8899478 0.26471527
2.4342757 -1.6988059 -0.5770064
4.1625756 -2.9060136 0.44414567
3.0333551 -2.1184599 -0.58600351
4.0909916 -2.8581633 0.61275906
4.0970011 -2.863426 -0.61373401
4.0672344 -2.8426219 0.78592675
4.1817731 -2.9237604 -0.44641171
4.0123303 -2.8063342 0.95175527
4.1451497 -2.9003093 -0.26513395
4.1205911 -2.8841973 1.1611973
4.1590205 -2.9121775 -0.08862332
4.1017888 -2.8721034 1.3417179
4.134806 -2.9049123 0.088204462
5.9790144 -4.2021217 0.38299453
2.4427852 -1.7174552 -0.58044096
4.1719624 -2.9342804 0.4462374
3.058253 -2.1517694 -0.59226088
4.113456 -2.8952776 0.61763383
4.0869809 -2.8777098 -0.61373401
4.1073571 -2.892057 0.79562569
4.1585108 -2.9291609 -0.44501722
4.0073245 -2.8237153 0.95290012
4.133368 -2.9136101 -0.26502928
4.1104982 -2.8985633 1.1611973
4.1471958 -2.9255248 -0.088588415
4.1054401 -2.8971426 1.3463767
4.1194576 -2.8952033 0.26387789
4.1213763 -2.9170173 0.088134653
6.0336556 -4.2736475 0.38749542
2.4287649 -1.7202979 -0.57853287
4.1356839 -2.9303953 0.44344842
3.0507233 -2.1624316 -0.59226088
4.1065631 -2.9119151 0.61812131
4.1092931 -2.9149288 -0.61860879
4.0811251 -2.8949478 0.792497
4.1515105 -2.945965 -0.44536585
4.0918965 -2.9047361 0.97541558
4.1280577 -2.9314898 -0.2653433
4.0987667 -2.9117653 1.1607474
4.1206584 -2.9283995 -0.088239367
4.0926608 -2.9085027 1.3453414
4.1046561 -2.926742 0.087995033
5.9406628 -4.2389982 0.38247117
2.4195489 -1.7264847 -0.57776964
4.1156999 -2.9378683 0.44240255
2.9949289 -2.1386289 -0.58287482
4.0899125 -2.9216164 0.61714636
4.079712 -2.9154052 -0.61568392
4.0303126 -2.8811667 0.78467528
4.1185103 -2.944217 -0.44292548
4.084926 -2.9212858 0.97617882
4.1113023 -2.9412332 -0.26492461
4.0552986 -2.9022382 1.1512995
4.1039075 -2.9381092 -0.088099748
4.0646966 -2.9111101 1.3396474
4.1071886 -2.909128 0.26377322
4.1018862 -2.9269273 0.26408724
4.0856941 -2.9326264 0.087785604
4.0948062 -2.9402499 0.26419191
2.410924 -1.7317867 -0.5770064
4.0837982 -2.9345067 0.43996219
2.9753637 -2.1388032 -0.58037187
4.0839371 -2.9367687 0.61763383
4.064087 -2.9235707 -0.61470897
4.0586283 -2.9196439 0.79187126
4.1189435 -2.9641237 -0.44397135
4.0613884 -2.9237813 0.97274426
4.095559 -2.949466 -0.26450592
4.014538 -2.8921819 1.1423015
4.1081518 -2.9596239 -0.088378986
4.0199946 -2.8971789 1.3277417
4.0694641 -2.9414732 0.087645985
5.8969821 -4.2655669 0.38142445
2.4048643 -1.7401918 -0.5770064
4.112264 -2.9767827 0.44414567
2.9650545 -2.1463415 -0.57974613
4.0597057 -2.9398168 0.61544018
4.057585 -2.9393608 -0.61519645
4.0596088 -2.9419073 0.79406134
4.1085717 -2.9784835 -0.44397135
4.0023955 -2.9015117 0.9609141
4.0809051 -2.9595135 -0.26419191
3.9812646 -2.8883136 1.1355529
4.086467 -2.9657242 -0.088134653
3.983281 -2.8918992 1.3189419
4.0731899 -2.9463315 0.2634592
4.0586557 -2.9563687 0.087645985
4.0531954 -2.9534743 0.26283117
2.3892562 -1.741637 -0.57471669
4.0696514 -2.9676409 0.44065944
2.9635514 -2.1618512 -0.5809976
4.0440929 -2.9511661 0.61470897
4.0339578 -2.9448492 -0.61324654
4.0381466 -2.9479071 0.79187126
4.0981499 -2.9928069 -0.44397135
4.0123427 -2.9312174 0.96587513
4.065193 -2.9709154 -0.26387789
4.003688 -2.9270387 1.1450009
4.0841612 -2.9858715 -0.088309177
4.0230605 -2.9422792 1.3355063
4.0585043 -2.9769078 0.087855414
4.038031 -2.9640591 0.26251716
2.3831622 -1.7499664 -0.57471669
4.0817478 -2.9983418 0.4430998
2.9149739 -2.1412612 -0.57286301
4.0406828 -2.9692625 0.61568392
4.0241702 -2.9582101 -0.61324654
4.0246491 -2.9596443 0.79124552
4.071629 -2.9952875 -0.44222824
4.0294847 -2.9642841 0.97236264
4.0537101 -2.983196 -0.26377322
4.028485 -2.9657164 1.1548987
4.0415105 -2.9763934 -0.08761108
4.0189869 -2.9608878 1.3375768
4.0411338 -2.9870085 0.087715795
4.0308718 -2.9805113 0.2627265
2.3738824 -1.7559395 -0.57395346
4.0392248 -2.9888691 0.43961357
2.9102816 -2.1542813 -0.57348875
4.036154 -2.9887777 0.61665888
3.9882945 -2.9533377 -0.60934672
4.0079442 -2.9689716 0.78999405
4.0675518 -3.0142268 -0.44292548
4.0107072 -2.9731871 0.97045455
4.0475617 -3.0016026 -0.26408724
4.0160229 -2.9793005 1.1544488
4.0343083 -2.9928656 -0.08768089
3.994665 -2.9645372 1.3329181
4.0119566 -2.9860656 0.087296937
4.0268504 -2.9993357 0.26314519
2.3582928 -1.7571771 -0.57166375
4.031962 -3.0053319 0.43996219
2.8809484 -2.1473928 -0.56910858
4.015081 -2.9938394 0.61495271
3.9906906 -2.9767366 -0.61129663
4.0086385 -2.9912134 0.79218413
4.0442325 -3.0188723 -0.44153099
3.9913861 -2.9794244 0.96816484
4.023183 -3.0042532 -0.26314519
4.0076824 -2.993768 1.1548987
4.0350496 -3.0153089 -0.087925224
3.9827452 -2.9773064 1.3324004
4.00526 -3.0050486 0.087401651
4.011038 -3.010478 0.26283117
2.3518366 -1.7658089 -0.57166375
4.0304783 -3.0272688 0.44100806
2.8947915 -2.1750515 -0.57348875
3.9876876 -2.9973068 0.61251532
3.9443258 -2.9657918 -0.60593438
3.9929117 -3.0023242 0.79124552
4.0363251 -3.0360702 -0.44187962
3.976779 -2.9923674 0.96740161
4.0036393 -3.0136732 -0.26262183
3.9946009 -3.0079621 1.1544488
4.0255683 -3.0312807 -0.087960128
3.9764353 -2.9953709 1.3339534
3.9936773 -3.0171086 0.087366747
3.9813868 -3.010007 0.26157511
2.3487902 -1.7763761 -0.57242699
4.0230644 -3.0437236 0.44135668
2.8655084 -2.1679532 -0.56910858
3.980892 -3.01291 0.6130028
3.8426755 -2.9093568 -0.59179753
3.9824073 -3.0162438 0.79124552
4.0193504 -3.0453283 -0.44118237
3.9683989 -3.006724 0.96778322
3.9888484 -3.0233139 -0.26230781
3.96597 -3.0070634 1.14905
3.997437 -3.0320211 -0.087576176
3.9674942 -3.0104008 1.334471
3.98153 -3.0298198 0.087331842
3.9840968 -3.0328713 0.26241248
2.3366389 -1.7793974 -0.57090051
4.0002698 -3.0473889 0.43996219
2.8484964 -2.1707585 -0.56723137
3.9703507 -3.0267875 0.6130028
3.8230258 -2.9155299 -0.5903351
3.9566759 -3.0174546 0.78811683
4.0028934 -3.0538063 -0.44048512
3.9563187 -3.0193669 0.96740161
3.9862083 -3.0432791 -0.26283117
3.9523518 -3.0185233 1.1481502
3.9825928 -3.0416192 -0.087471461
3.9544194 -3.0211952 1.3334357
3.9698735 -3.0417901 0.087296937
3.9655611 -3.0406834 0.26188913
2.3304134 -1.787543 -0.57090051
3.9832853 -3.0564823 0.43926494
2.8538196 -2.1898128 -0.56973432
3.9618664 -3.0411458 0.61324654
3.8889105 -2.9862233 -0.60203456
3.9476854 -3.0324509 0.7884297
3.9795707 -3.0580485 -0.43909063
3.9447276 -3.0312737 0.96701999
3.974511 -3.0552638 -0.2627265
3.9531338 -3.0399287 1.1512995
3.9576865 -3.044529 -0.087157318
3.9361943 -3.0290895 1.3308475
3.9412869 -3.0428776 0.086912984
3.9533423 -3.0532864 0.26178445
2.3241595 -1.7956668 -0.57090051
3.9552513 -3.0569656 0.43734752
2.8488999 -2.2026744 -0.57036006
3.9491232 -3.0544318 0.6130028
3.8873594 -3.0077454 -0.60349699
3.9355138 -3.0450036 0.78811683
3.9594184 -3.0646041 -0.43804476
3.9227247 -3.037298 0.96434866
3.9553912 -3.0636955 -0.26220314
3.9373441 -3.0508165 1.1499498
3.9707457 -3.0766974 -0.08768089
3.9026937 -3.0250582 1.323083
3.9327534 -3.0571579 0.086947889
3.9395073 -3.0646149 0.26157511
2.3240749 -1.8085916 -0.57242699
3.9807161 -3.0989029 0.44135668
2.8228751 -2.1975483 -0.56660563
3.9311416 -3.0614123 0.6117841
3.8961557 -3.0352593 -0.60642185
3.9248608 -3.0587226 0.78811683
3.9675525 -3.0931063 -0.4401365
3.9110827 -3.0490824 0.96396704
3.9294605 -3.0645126 -0.26115642
3.9195232 -3.0578629 1.1477003
3.945794 -3.0794664 -0.087366747
3.9119061 -3.0541176 1.3298123
3.9194118 -3.0710027 0.086912984
3.9188169 -3.0716407 0.26094708
2.298891 -1.8025608 -0.56784757
3.9395457 -3.0901088 0.43804476
2.8237407 -2.2156876 -0.56848285
3.9177962 -3.0752585 0.61154037
3.8600208 -3.029908 -0.60252203
3.91207 -3.0718674 0.78780397
3.9467883 -3.1002429 -0.43909063
3.9039773 -3.0677164 0.9651119
3.9244838 -3.0838303 -0.26157511
3.9036931 -3.0685952 1.1463506
3.9266211 -3.0877273 -0.087192223
3.8900573 -3.060074 1.3261888
3.9139163 -3.0876987 0.087017698
3.8992025 -3.0771952 0.26031905
2.268246 -1.79071 -0.56174168
3.9308404 -3.1043907 0.43821907
2.8101776 -2.220141 -0.56723137
3.9106916 -3.0906952 0.61202784
3.8499521 -3.0426916 -0.60252203
3.8941139 -3.0786979 0.78623962
3.9364858 -3.1133139 -0.43909063
3.8907037 -3.0782093 0.96434866
3.9126696 -3.0955881 -0.26147044
3.8858555 -3.0754765 1.1441011
3.9053857 -3.0920425 -0.086947889
3.8814028 -3.0741566 1.3267064
3.9010076 -3.1007789 0.086982794
3.9035307 -3.1038963 0.26136577
2.2647404 -1.8014558 -0.56250492
3.9131997 -3.1138148 0.43752183
2.8143857 -2.2402679 -0.56973432
3.8993374 -3.1050079 0.61202784
3.8636206 -3.076567 -0.60642185
3.8812586 -3.091719 0.78592675
3.903234 -3.1103378 -0.43665027
3.8732546 -3.0875538 0.96282219
3.899193 -3.1093436 -0.26136577
