4.0037395 -3.0821814 -0.44205393
3.9353292 -3.0306115 0.96549352
3.9744737 -3.061862 -0.26293584
3.9422305 -3.038119 1.14905
3.9576635 -3.0511137 -0.087227127
3.9299606 -3.0308502 1.3298123
3.9449571 -3.0512095 0.087052603
3.9427781 -3.0506242 0.26126109
2.3210391 -1.7964926 -0.5705189
3.9620342 -3.0677347 0.43839339
2.8391681 -2.1991116 -0.56879571
3.9339028 -3.0481501 0.61105289
3.8721815 -3.0014076 -0.60154708
3.9344163 -3.049647 0.7884297
4.0087014 -3.1083471 -0.44379704
3.9185214 -3.0395167 0.96396704
3.9590278 -3.0720437 -0.26262183
3.937759 -3.0566412 1.1508496
3.9596244 -3.0747216 -0.087506366
3.9147801 -3.0409945 1.3282593
3.9342823 -3.0649614 0.087052603
3.9226532 -3.0570022 0.26063306
2.305464 -1.7973411 -0.56822919
3.9450173 -3.076645 0.43769614
2.8252446 -2.2041484 -0.56754424
3.9232388 -3.0618634 0.61105289
3.8648105 -3.0173489 -0.60203456
3.9144048 -3.0560684 0.78655249
3.9789839 -3.1076047 -0.4417053
3.9140758 -3.0580112 0.96549352
3.9262492 -3.0686258 -0.26115642
3.9071076 -3.054764 1.1450009
3.931541 -3.074973 -0.087122413
3.9092394 -3.0575302 1.3298123
3.91884 -3.0749727 0.086947889
3.9135294 -3.0719094 0.26073773
2.2868232 -1.7956779 -0.56517624
3.9217193 -3.080551 0.43630165
2.8361721 -2.228643 -0.57129867
3.9203303 -3.0816733 0.61227158
3.8542544 -3.0308212 -0.60203456
3.9037133 -3.0697136 0.78655249
3.9681121 -3.1214751 -0.4417053
3.9002919 -3.0692271 0.96473028
3.9374846 -3.0996078 -0.26262183
3.8964207 -3.0683837 1.1450009
3.9239251 -3.0911528 -0.087192223
3.8919374 -3.0670548 1.3277417
3.9096514 -3.0898731 0.086982794
3.9038106 -3.0874715 0.26084241
2.2867007 -1.8085209 -0.56670272
3.9296923 -3.109056 0.43839339
2.8035923 -2.2189148 -0.56629276
3.9111057 -3.0965712 0.61251532
3.8778863 -3.0713715 -0.60739681
3.8883287 -3.079642 0.78561388
3.9259592 -3.1105614 -0.43821907
3.8864773 -3.080384 0.96396704
3.9109908 -3.1009246 -0.26157511
3.8856863 -3.0819661 1.1450009
3.9005791 -3.0948876 -0.086912984
3.8620717 -3.0643342 1.3210124
3.8925837 -3.09852 0.086843174
3.8961339 -3.1035683 0.26105175
2.2803738 -1.816492 -0.56670272
3.9219321 -3.1252376 0.43874201
2.7865618 -2.2212997 -0.56441555
3.8894085 -3.1015412 0.61080915
3.8671416 -3.0848891 -0.60739681
3.8785591 -3.0951049 0.78592675
3.9244213 -3.1317031 -0.43926494
3.8695638 -3.0890322 0.96244057
3.9001427 -3.1145577 -0.26157511
3.8764271 -3.0967272 1.1454508
3.8960007 -3.1134778 -0.087052603
3.862886 -3.0881192 1.3251535
3.8666832 -3.0989056 0.086494126
3.8785731 -3.1095465 0.26052839
2.2682114 -1.8191307 -0.56517624
3.9239793 -3.1482005 0.4401365
2.7884238 -2.2379467 -0.56629276
3.8698145 -3.1069651 0.60934672
3.8476043 -3.0902377 -0.60593438
3.8703566 -3.1085114 0.78623962
3.9202273 -3.1496913 -0.43996219
3.8562384 -3.0993873 0.96167734
3.8711145 -3.112456 -0.26031905
3.8646182 -3.1083435 1.1450009
3.8799674 -3.1206889 -0.086912984
3.8441344 -3.0929734 1.3220477
3.8688356 -3.1217568 0.086773365
3.8599256 -3.1167926 0.26000503
2.2557387 -1.8221026 -0.56364977
3.8974692 -3.1493563 0.43839339
2.7809871 -2.2471811 -0.56629276
3.861034 -3.1210287 0.60959046
3.8342483 -3.1004835 -0.6054469
3.8518032 -3.1157909 0.78467528
3.8937208 -3.1508231 -0.43821907
3.8489916 -3.114628 0.96244057
3.8700863 -3.1328158 -0.26094708
3.8330869 -3.1039726 1.1387022
3.864389 -3.1304374 -0.08680827
3.8363164 -3.1088056 1.323083
3.8620227 -3.1397001 0.086878079
3.8474729 -3.1289871 0.25990036
2.2310895 -1.8150978 -0.55907036
3.8709991 -3.1503655 0.43665027
2.760477 -2.2473816 -0.56378981
3.8480297 -3.1339056 0.60934672
3.8043908 -3.0994699 -0.60252203
3.8347778 -3.1242264 0.7834238
3.8888764 -3.1694304 -0.43891632
3.8360285 -3.1274738 0.96205895
3.8508391 -3.1406677 -0.26042372
3.8247045 -3.1204646 1.139602
3.8394933 -3.1325303 -0.086494126
3.8194546 -3.1172919 1.3210124
3.8392103 -3.1423572 0.086598841
3.8442529 -3.148726 0.26042372
2.2186657 -1.8178976 -0.55754388
5.5179975 -4.5228653 0.62420943
2.7438427 -2.2490099 -0.5619126
3.8391511 -3.1479075 0.60959046
3.8247882 -3.1372472 -0.60739681
3.8238488 -3.1375932 0.7834238
3.859309 -3.1678167 -0.43682458
3.8180488 -3.1339493 0.96015086
3.8481209 -3.1597576 -0.26094708
3.8143356 -3.1331306 1.139602
3.8424404 -3.1573394 -0.08680827
3.6100636 -2.9674507 1.2521665
3.8384059 -3.1461763 0.43420991
3.8224885 -3.153258 0.086494126
3.8296054 -3.1602523 0.26021437
2.2150159 -1.8285169 -0.55830712
5.5321087 -4.5684325 0.62769566
2.7473704 -2.2695936 -0.56441555
3.8255056 -3.161361 0.60934672
3.813264 -3.1512447 -0.60739681
3.8108008 -3.1503286 0.78311093
3.8476724 -3.1819405 -0.43682458
3.8059871 -3.1485864 0.96015086
3.8174957 -3.1592295 -0.25969101
3.7977739 -3.1440253 1.1382523
3.8262213 -3.1675759 -0.086703555
3.3611036 -2.7835123 1.1693444
3.8104726 -3.1646389 0.086459221
3.8124067 -3.1684945 0.25979569
2.2146583 -1.841258 -0.55983359
5.4885552 -4.5647832 0.62455805
2.733754 -2.2736392 -0.56316407
3.8058451 -3.1664118 0.60788428
3.7778284 -3.1442182 -0.60349699
3.8043352 -3.1674034 0.78404954
3.8273563 -3.1877015 -0.43577871
3.7879823 -3.154908 0.95824277
3.7977916 -3.1642006 -0.25906298
3.7903209 -3.1590973 1.1391521
3.8228205 -3.1873154 -0.086878079
3.3513668 -2.7952277 1.1693444
3.8575742 -3.1855968 0.43769614
3.8219216 -3.1786587 0.43490716
3.8101398 -3.1869015 0.086703555
3.7865608 -3.1683027 0.25874897
2.2115512 -1.8511122 -0.56059683
5.5069948 -4.6110986 0.62839291
2.7046002 -2.26541 -0.55878391
3.7947691 -3.1796774 0.60788428
3.7394459 -3.1344326 -0.59910969
3.7877552 -3.1749258 0.78279806
3.8259247 -3.2080568 -0.43682458
3.7709299 -3.1630645 0.9567163
3.7867233 -3.1774381 -0.25906298
3.7583741 -3.1547683 1.1328535
3.7984453 -3.188404 -0.086563936
3.3184079 -2.7864493 1.1610622
3.7888435 -3.1905025 0.086459221
3.7831148 -3.1879361 0.25927233
2.181059 -1.8385749 -0.55449094
5.4573568 -4.6020365 0.62455805
2.7121741 -2.2871007 -0.5619126
3.7948253 -3.2012036 0.60959046
3.7017234 -3.1237716 -0.5947224
3.7691023 -3.181757 0.78123372
3.7994809 -3.2085375 -0.43508147
3.7724199 -3.1856854 0.95976925
3.7837943 -3.1964223 -0.25958634
3.7404496 -3.160925 1.130604
3.7796569 -3.1951887 -0.086389412
3.3189869 -2.8067478 1.1646857
3.829691 -3.2066641 0.43699889
3.7880118 -3.1943245 0.43351266
3.7771242 -3.2043678 0.086459221
3.7719638 -3.2011222 0.25927233
2.1836078 -1.8538005 -0.55678065
3.782913 -3.2126866 0.43420991
2.7097951 -2.3021418 -0.56316407
3.7830668 -3.2150909 0.60959046
3.5541336 -3.0215974 -0.57278591
3.7624879 -3.1987328 0.78217233
3.7821869 -3.2166176 -0.43438422
3.7517465 -3.1918576 0.95747954
3.7842214 -3.2206248 -0.26042372
3.6323909 -3.0925003 1.1013604
3.7608675 -3.2018811 -0.086214888
3.3003448 -2.8108007 1.1615799
3.7619157 -3.2129795 0.086354507
3.7744313 -3.2259481 0.26021437
2.1741391 -1.8588598 -0.55601741
3.751992 -3.2090367 0.43194386
2.6811293 -2.2931398 -0.55878391
3.7603176 -3.217294 0.60764055
3.5199641 -3.012714 -0.5688861
3.7482983 -3.2092773 0.78154659
3.7679094 -3.2272081 -0.4340356
3.7336858 -3.1978957 0.95557145
3.7629038 -3.2240595 -0.25969101
3.7197709 -3.1882292 1.1310539
3.7663669 -3.2293073 -0.086598841
3.297845 -2.8285924 1.1641681
3.7455668 -3.2228333 0.086249793
3.7449828 -3.2234684 0.25895831
2.1691249 -1.8677187 -0.55639903
3.7739785 -3.2507204 0.43577871
2.6457699 -2.2797412 -0.55315227
3.7485003 -3.2310547 0.60764055
3.7013314 -3.1915231 -0.60008465
3.7415611 -3.2262117 0.78248519
3.7626561 -3.2455463 -0.43473284
3.7130215 -3.2038635 0.95328174
3.7298949 -3.2195589 -0.25822561
3.7124853 -3.2056623 1.1324036
3.7505309 -3.2385139 -0.086494126
3.2733316 -2.8274586 1.1589917
3.7348589 -3.2352363 0.086249793
3.7367263 -3.2391376 0.25916766
2.1403433 -1.855986 -0.55067476
3.7340126 -3.2390688 0.4324668
2.6650549 -2.3118016 -0.55878391
3.7317679 -3.2382633 0.60666559
3.6457553 -3.1647409 -0.59277249
3.7287852 -3.2379573 0.78217233
3.7573206 -3.263887 -0.43543009
3.6801447 -3.1968463 0.94755747
3.7252283 -3.2371502 -0.2586443
3.4915198 -3.0351318 1.0680676
5.4035867 -4.6989223 -0.12499413
3.2532392 -2.829992 1.1553682
3.7376946 -3.2502738 -0.086459221
3.7259894 -3.2515331 0.086319602
3.7103508 -3.2390268 0.25812094
2.1456817 -1.8737768 -0.5537277
3.7376881 -3.2651911 0.43420991
2.6238402 -2.292957 -0.55190079
3.719874 -3.2519191 0.60666559
3.556428 -3.1101296 -0.58009807
3.70259 -3.2379497 0.77904364
3.7399064 -3.2717353 -0.43473284
3.2783673 -2.8689831 0.84681032
3.7208523 -3.25736 -0.25916766
3.5419456 -3.1018311 1.0869635
3.7092111 -3.2494566 -0.086075269
3.2782155 -2.8718827 1.1677915
3.7041023 -3.255279 0.086075269
3.7194512 -3.2710699 0.25958634
2.127334 -1.870883 -0.55067476
3.7157965 -3.269006 0.43298973
2.6128546 -2.2994919 -0.55127505
3.71148 -3.2675075 0.60715307
3.5962007 -3.1671324 -0.58838519
3.6981085 -3.2580277 0.78060798
3.7165033 -3.2742335 -0.43333835
3.2698056 -2.8817073 0.84719194
3.7034667 -3.2650451 -0.25874897
3.6114816 -3.1850698 1.1117081
3.7038439 -3.2676761 -0.086214888
3.2778066 -2.8928268 1.171415
3.6882243 -3.264213 0.085970554
3.6891433 -3.2661747 0.25822561
2.1149116 -1.8730908 -0.54914829
3.6760284 -3.2568531 0.42967781
2.6136819 -2.3164597 -0.55315227
3.6970809 -3.2778093 0.60666559
3.5108665 -3.1138073 -0.57619826
3.6822804 -3.2669837 0.77966937
3.7080322 -3.2898311 -0.43368698
3.214208 -2.8527043 0.83536178
3.6950341 -3.2806048 -0.25895831
3.6032557 -3.2002449 1.1126079
3.6894252 -3.2779287 -0.086145078
3.2768607 -2.9113792 1.1745208
3.6708364 -3.2717453 0.085830935
3.6926274 -3.2923239 0.25927233
2.1083604 -1.8804618 -0.54914829
3.6824775 -3.2855823 0.43176955
2.60558 -2.3255691 -0.55315227
3.6708091 -3.2774736 0.6042282
3.505898 -3.131333 -0.57717321
3.6826385 -3.2903465 0.78217233
3.6935545 -3.3000996 -0.43333835
3.2393615 -2.8953062 0.84452061
3.6656932 -3.277508 -0.25770225
3.5237948 -3.151743 1.0914625
3.6839217 -3.2961208 -0.086284697
3.4236054 -3.0632076 1.2309434
3.6712988 -3.2952248 0.086110173
3.6537897 -3.2818129 0.25738823
2.1017835 -1.8878099 -0.54914829
3.6902526 -3.3157275 0.4340356
2.5739401 -2.313522 -0.54814637
3.6711553 -3.3008852 0.60617811
3.4536209 -3.1063814 -0.57034853
3.6540829 -3.2866882 0.7784179
3.6908991 -3.3209683 -0.43438422
3.1839997 -2.8658801 0.83269046
3.658683 -3.294293 -0.25801626
3.6126815 -3.2540149 1.1225058
3.6679368 -3.3049442 -0.086179983
3.5242827 -3.1766213 1.2713191
3.6582904 -3.306679 0.086075269
3.6606641 -3.3099857 0.2586443
2.0777091 -1.8793312 -0.54456887
3.6668371 -3.3178944 0.43264111
2.5717068 -2.3277951 -0.54939784
3.6551962 -3.3096826 0.6054469
3.4368715 -3.1130872 -0.56937357
3.6273737 -3.2867952 0.77528921
3.6674727 -3.3231292 -0.43298973
3.2568897 -2.9521316 0.85444268
3.6442023 -3.3043609 -0.25780692
3.4887151 -3.1644834 1.0874134
3.6445308 -3.3069776 -0.085900744
3.5818341 -3.2512279 1.2961658
3.6422893 -3.3153905 0.085970554
3.6284131 -3.3039179 0.25717889
2.0740391 -1.8892164 -0.54533211
3.6360881 -3.3132288 0.43037506
2.5372876 -2.3128048 -0.5437662
3.6450878 -3.323759 0.60569064
3.3717196 -3.0755671 -0.56035524
3.6164544 -3.2988059 0.77528921
3.6558505 -3.3359108 -0.43298973
3.4771161 -3.1739306 0.91511994
3.6414951 -3.3251419 -0.25843495
3.5164961 -3.2121279 1.0995608
3.6300126 -3.3169814 -0.085830935
3.4991682 -3.1985411 1.2702839
3.6233237 -3.3213281 0.08579603
3.6389391 -3.3368109 0.25874897
2.0761125 -1.9044073 -0.54762182
3.6186286 -3.3205126 0.42967781
2.5495722 -2.3403489 -0.54814637
3.6159176 -3.3203508 0.60276577
3.3054102 -3.0362879 -0.55109317
3.6034626 -3.3100732 0.77497634
3.6529861 -3.3567403 -0.4340356
3.5989906 -3.3082824 0.9502288
3.6181046 -3.3270177 -0.25759758
3.5554604 -3.2705588 1.1153073
3.6213551 -3.3323404 -0.085900744
3.3245271 -3.0602736 1.2107555
3.6073 -3.3298865 0.085691316
1.7838934 -1.6472828 -0.56057803
3.6081939 -3.3318782 0.25738823
2.0636837 -1.9063141 -0.54609534
3.6055525 -3.3317716 0.4295035
2.5471896 -2.3545979 -0.54939784
3.5941032 -3.3235183 0.6010596
3.3501661 -3.099031 -0.56035524
3.5962366 -3.3266557 0.77591495
3.6324725 -3.361352 -0.43298973
3.5859798 -3.3194914 0.94984718
3.6006073 -3.3341989 -0.25717889
3.4325121 -3.1796541 1.080215
3.6185015 -3.3531161 -0.086110173
3.3271136 -3.083099 1.2154142
3.5927253 -3.339735 0.085621506
3.5921537 -3.3403726 0.25707422
2.0570168 -1.9135061 -0.54609534
3.5982762 -3.3484089 0.43002643
2.5331715 -2.3580911 -0.54814637
3.58248 -3.3360438 0.6010596
3.339328 -3.1107064 -0.56035524
3.5773755 -3.3324564 0.7743506
3.6265476 -3.3794444 -0.43368698
3.4996953 -3.2623769 0.93000304
3.5860254 -3.3440228 -0.25696955
3.2461188 -3.0281142 1.024877
3.5965409 -3.3561765 -0.08586584
3.2706015 -3.0530884 1.1988498
3.5927244 -3.3631884 0.085900744
1.7723498 -1.6596965 -0.56057803
3.5755136 -3.3494197 0.2567602
2.0316986 -1.9032263 -0.54113431
3.5749356 -3.3500499 0.42863194
2.5133955 -2.3561113 -0.54564341
3.5679172 -3.3458129 0.60057212
3.3284493 -3.1223439 -0.56035524
3.5556364 -3.3354631 0.77216052
3.6089176 -3.3866293 -0.43298973
3.1175574 -2.9265575 0.83116398
3.5728748 -3.3551528 -0.25686487
3.2042816 -3.0100733 1.0149792
3.5716886 -3.3563858 -0.085551696
3.2689059 -3.071855 1.2019556
3.5722323 -3.3674788 0.085691316
3.556536 -3.3550276 0.25623684
2.0321832 -1.9170426 -0.5430424
3.5574237 -3.3570386 0.4279347
2.5051558 -2.3648703 -0.54564341
3.5619895 -3.3636986 0.60154708
3.5505661 -3.3552565 0.77372486
3.5854892 -3.3882586 -0.43159524
3.0859225 -2.9171918 0.82543971
3.5654948 -3.3717209 -0.25717889
3.1895079 -3.0172223 1.0136295
3.570118 -3.3784542 -0.08579603
3.2407898 -3.0678784 1.195744
3.5465404 -3.3655412 0.085342267
3.5503239 -3.3703094 0.25655086
2.0258149 -1.923771 -0.5430424
3.5506054 -3.3729337 0.42845763
2.5001637 -2.3758862 -0.54626915
3.547938 -3.3727567 0.6010596
3.5385763 -3.3650331 0.773412
3.5857821 -3.4111158 -0.43298973
3.0719651 -2.9233488 0.82429486
3.5528476 -3.3821488 -0.25707422
3.1879522 -3.0358459 1.0163289
3.5545514 -3.3861367 -0.085691316
3.235332 -3.082042 1.1972969
3.5333252 -3.3765189 0.085307363
3.5393907 -3.3846798 0.25665553
2.0176685 -1.9294738 -0.54266078
3.53881 -3.3853071 0.42845763
2.4661659 -2.3600155 -0.54063751
3.5318414 -3.3810026 0.60032839
3.5433366 -3.394378 0.77716642
3.5767307 -3.4263682 -0.43333835
3.0957614 -2.9666547 0.83345369
3.5338111 -3.3876193 -0.25655086
3.1829618 -3.0523506 1.0181285
3.5499252 -3.4054454 -0.08586584
3.2268018 -3.0965546 1.1983322
3.5258401 -3.3929917 0.085412077
1.749298 -1.6839753 -0.56057803
3.5151973 -3.3839318 0.25571348
2.0109211 -1.936505 -0.54266078
3.5269715 -3.3976392 0.42845763
2.4835161 -2.3932826 -0.54626915
3.5243054 -3.3974435 0.6010596
3.5158279 -3.3916397 0.77372486
3.5590129 -3.4332994 -0.43264111
3.1885157 -3.0769637 0.86131181
3.5262755 -3.4040954 -0.25686487
3.1624751 -3.0539667 1.0149792
3.5279488 -3.4080907 -0.085621506
3.2331886 -3.1233446 1.2045438
3.5111028 -3.4024953 0.085342267
1.7434092 -1.6900712 -0.56057803
3.5047978 -3.3975717 0.25581815
1.9844177 -1.9243782 -0.53731813
3.5079397 -3.4029935 0.42758607
2.4354538 -2.3634181 -0.53750882
3.5309411 -3.4277 0.6042282
3.1372913 -3.0466239 -0.53695633
3.5011337 -3.4011387 0.77309913
3.5412904 -3.4401486 -0.43194386
3.1003182 -3.0128227 0.84032282
3.5100752 -3.4122072 -0.25655086
3.1601779 -3.0731388 1.0176786
3.5102974 -3.4148073 -0.085481887
3.2153427 -3.1278762 1.2019556
3.4963421 -3.4119374 0.085272458
1.7374991 -1.6961465 -0.56057803
3.5023241 -3.4201625 0.25655086
1.9748791 -1.9285501 -0.53655489
3.4960397 -3.4152178 0.42758607
2.4130611 -2.3580988 -0.53438013
3.5019206 -3.4233525 0.60130334
3.1110256 -3.0422896 -0.5342752
3.4799496 -3.4030624 0.77090904
3.5235636 -3.446916 -0.43124662
3.4518007 -3.3778934 0.93878026
3.5009974 -3.4272332 -0.2567602
3.156393 -3.0909684 1.0199281
3.4954992 -3.424241 -0.085412077
3.1900591 -3.1261188 1.1967793
3.4801321 -3.4199163 0.085167743
1.7315679 -1.7022012 -0.56057803
3.5037819 -3.4443591 0.2574929
1.9779338 -1.9450678 -0.53922622
3.4727343 -3.4162226 0.42619158
2.4273426 -2.3886763 -0.53938604
3.4956082 -3.4411261 0.6022783
3.1074591 -3.0600948 -0.53549389
3.4843403 -3.4324296 0.77466347
3.5001552 -3.4480088 -0.42985212
3.4651592 -3.4147261 0.94564938
3.4819011 -3.4324224 -0.25623684
3.1677852 -3.1238605 1.0271265
3.4849486 -3.4378261 -0.085446982
3.1818775 -3.139949 1.1978145
3.4667518 -3.4306368 0.085132839
1.7256156 -1.7082351 -0.56057803
3.4704464 -3.435492 0.25592283
1.9836872 -1.9643931 -0.54266078
3.4791893 -3.4465522 0.42845763
2.3965398 -2.3748876 -0.53438013
3.4596088 -3.429549 0.59813474
3.1080348 -3.0821054 -0.5374438
3.4617177 -3.4328377 0.77216052
3.490927 -3.463012 -0.43020075
3.4546121 -3.4281839 0.946031
3.4670636 -3.4417414 -0.2560275
3.1471822 -3.125287 1.0239772
3.4786018 -3.4556071 -0.085586601
3.2270804 -3.2068675 1.2190377
3.4505061 -3.4384825 0.085028124
1.7196422 -1.7142482 -0.56057803
3.4626766 -3.4518154 0.25623684
1.9615263 -1.9560563 -0.53846298
3.4558529 -3.447419 0.42706314
2.3826422 -2.3776572 -0.53312866
3.4574506 -3.4514215 0.59984091
3.0747829 -3.0704927 -0.53354399
3.4525093 -3.4476921 0.77278626
3.4844559 -3.4808089 -0.43089799
3.4481793 -3.4457728 0.94755747
3.453616 -3.4524107 -0.25592283
3.1293639 -3.1293639 1.0217277
3.4721733 -3.4733856 -0.08572622
3.2500054 -3.2522751 1.2319787
3.4554209 -3.4675036 0.085446982
1.7136479 -1.7202405 -0.56057803
3.4421491 -3.4553914 0.25560881
1.9505305 -1.958718 -0.53731813
3.4494207 -3.4651093 0.42776039
2.3687546 -2.3803589 -0.53187718
3.4425818 -3.4606545 0.59935343
3.0500486 -3.0671311 -0.5311066
3.422346 -3.4415135 0.76871896
3.4638565 -3.4844726 -0.42985212
3.4333626 -3.4550031 0.94679424
3.4457666 -3.4686959 -0.25623684
3.1239139 -3.1457994 1.0235273
3.4459397 -3.4712928 -0.085377172
3.1725131 -3.1958545 1.2066144
3.4292302 -3.4653304 0.085097934
1.7076327 -1.7262117 -0.56057803
3.4328758 -3.4702255 0.25581815
1.9381596 -1.9599308 -0.53579166
3.4289 -3.4686273 0.42671452
2.374316 -2.4026635 -0.53500587
3.4290859 -3.4712381 0.59910969
3.0951168 -3.1342576 -0.54085615
3.417252 -3.4604665 0.77028331
3.4432741 -3.4880351 -0.42880625
3.4226604 -3.4683641 0.94717585
3.4420534 -3.4892339 -0.25686487
3.1019675 -3.1455843 1.0199281
3.4295901 -3.479028 -0.085272458
3.1458627 -3.1923249 1.2009204
3.4129082 -3.4730007 0.084993219
1.7015967 -1.732162 -0.56057803
3.4201337 -3.4827843 0.25581815
1.9368086 -1.9722874 -0.53731813
3.4111884 -3.4748881 0.42601727
2.3271746 -2.3714595 -0.52624554
3.4183382 -3.4846037 0.59935343
3.0563596 -3.116696 -0.53598137
3.4093011 -3.476605 0.77122191
3.4338671 -3.5028787 -0.42915488
3.3995399 -3.4690726 0.94412291
3.4214668 -3.4926672 -0.25623684
2.909628 -2.9712143 0.9600911
3.418824 -3.4924073 -0.085307363
3.1649902 -3.2331102 1.2123084
3.3951779 -3.4791681 0.0848536
1.6955399 -1.7380911 -0.56057803
3.4009836 -3.487552 0.25529479
1.9230589 -1.9720083 -0.53541004
3.4059918 -3.4939075 0.42688883
2.3354262 -2.3965451 -0.52999997
3.3936873 -3.4837174 0.59715978
3.0454617 -3.1273457 -0.53598137
3.39378 -3.4862465 0.77059617
3.4313472 -3.5248372 -0.43037506
3.3874098 -3.4809181 0.94412291
3.3939349 -3.4888413 -0.25508545
3.0201536 -3.1056921 1.0001324
3.4066124 -3.50432 -0.085307363
3.1625433 -3.2543868 1.2159319
3.3871875 -3.4953064 0.084958315
1.6894625 -1.743999 -0.56057803
3.3852307 -3.4945073 0.25498078
1.9161636 -1.978709 -0.53541004
3.393775 -3.5057754 0.42688883
2.3105621 -2.3876483 -0.52624554
3.3828863 -3.4969691 0.59740352
3.0345267 -3.1379573 -0.53598137
3.3780809 -3.4932215 0.76965757
3.4204071 -3.5382259 -0.43054937
3.3834242 -3.5011917 0.94641262
3.3914495 -3.5107223 -0.25581815
2.8427881 -2.9437933 0.94479443
3.4013036 -3.5233834 -0.085481887
3.1423419 -3.255127 1.2123084
3.3791258 -3.5114312 0.085063029
1.6833645 -1.7498857 -0.56057803
3.3724 -3.5068914 0.25498078
1.8983583 -1.9740648 -0.5323571
3.3842785 -3.5204732 0.42723745
2.310426 -2.404245 -0.52812275
3.3624077 -3.5001669 0.59594109
3.0235546 -3.1485306 -0.53598137
3.359783 -3.4998792 0.76840609
3.3969974 -3.5386453 -0.42915488
3.3684635 -3.5101477 0.94564938
3.3805568 -3.5239806 -0.25592283
2.8136118 -2.9340072 0.9384958
3.3751457 -3.5207993 -0.085132839
3.1116773 -3.2470952 1.2050615
3.3613218 -3.5174223 0.08492341
1.677246 -1.7557511 -0.56057803
3.3593726 -3.5166112 0.25487611
1.8901 -1.9792594 -0.53197548
3.3609631 -3.5207358 0.42584296
2.3020195 -2.4122953 -0.52812275
3.3625013 -3.5248098 0.59813474
3.0125458 -3.1590656 -0.53598137
3.3434566 -3.5072963 0.76746749
3.3805003 -3.5461552 -0.42863194
2.9525806 -3.0983487 0.83192722
3.372368 -3.5400979 -0.25623684
2.7926019 -2.9325209 0.93489658
3.3642141 -3.5340077 -0.085167743
3.0702565 -3.2252139 1.1931558
3.3407642 -3.5204309 0.084713981
1.6711071 -1.7615951 -0.56057803
3.3553243 -3.5370101 0.25550414
1.8912851 -1.9943925 -0.53426519
3.3541358 -3.5382301 0.42654021
2.2664098 -2.3916394 -0.52186538
3.3501769 -3.5365256 0.59813474
3.0015003 -3.1695621 -0.53598137
3.3352676 -3.5232494 0.76840609
3.3681013 -3.5579337 -0.42863194
2.8729267 -3.0359113 0.8124647
3.3641078 -3.5562008 -0.25655086
2.85733 -3.0215417 0.9600911
3.3559787 -3.5500889 -0.085272458
3.0404002 -3.2162573 1.1859089
3.3311981 -3.5349816 0.08478379
1.6649478 -1.7674176 -0.56057803
3.3382302 -3.5449222 0.25519012
1.8735444 -1.9895479 -0.53121224
3.3376677 -3.5455645 0.42601727
2.2472177 -2.3880275 -0.51936242
3.3255704 -3.5351854 0.59594109
2.9224232 -3.107714 -0.52379444
3.2261322 -3.4306791 0.74587953
3.3583906 -3.5725723 -0.42898057
2.826012 -3.0072928 0.80216102
3.3325293 -3.5475423 -0.25508545
3.0615401 -3.2602091 1.0325253
3.347672 -3.5661557 -0.085377172
3.0127282 -3.2104747 1.1796972
3.3229375 -3.5509684 0.084888505
1.6587682 -1.7732186 -0.56057803
3.3209988 -3.5501384 0.25477143
1.8585425 -1.9874719 -0.52892254
3.3429586 -3.5761148 0.42828332
2.249658 -2.4074035 -0.52186538
3.2928836 -3.5250129 0.59228501
2.9792996 -3.1904392 -0.53598137
3.2081446 -3.4367044 0.74462805
3.3445399 -3.582817 -0.42880625
2.780672 -2.9798196 0.79223895
3.3283 -3.5679161 -0.25571348
3.0328637 -3.2523482 1.0266766
3.3270222 -3.5690432 -0.085167743
3.0067713 -3.2266248 1.1817678
3.3173282 -3.5698703 0.085063029
1.6525684 -1.778998 -0.56057803
3.2977117 -3.5500027 0.25393406
1.8328906 -1.9738065 -0.52357988
3.3141893 -3.5702395 0.42619158
2.2479592 -2.4224815 -0.52342972
3.2076576 -3.4578972 0.57912312
2.919553 -3.1484186 -0.52720678
3.2383685 -3.4922262 0.75432699
3.3306587 -3.5930087 -0.42863194
2.7515717 -2.9693473 0.7868963
3.2723926 -3.5326256 -0.25236398
2.9989835 -3.2386076 1.0190283
3.30911 -3.5747651 -0.085028124
2.9876174 -3.2285932 1.1786619
3.2926418 -3.5682017 0.084748886
1.6463485 -1.7847557 -0.56057803
3.2947792 -3.5717686 0.25466676
1.8392986 -1.9946253 -0.52739606
3.2584942 -3.5349082 0.42061361
2.2435053 -2.4346716 -0.52436833
3.211707 -3.4865935 0.58204798
3.2770064 -3.5587281 0.76621601
3.2789648 -3.5621023 -0.42357691
2.7996829 -3.0425 0.80368749
3.0139496 -3.2764976 -0.23331369
2.9731508 -3.2332772 1.0140794
3.3060846 -3.5965997 -0.085272458
2.9488796 -3.2091301 1.1677915
3.2754894 -3.5758222 0.084644171
1.639796 -1.7907779 -0.56057803
3.3018981 -3.6059157 0.25623684
1.8372779 -2.0071459 -0.52892254
3.1769205 -3.4718634 0.41172373
2.211901 -2.4180995 -0.51904956
3.2779414 -3.5847747 0.59642857
2.8969488 -3.1692296 -0.52720678
2.8361235 -3.1026875 0.66578508
3.0185935 -3.3034652 -0.3915036
2.7554107 -3.0165023 0.79414704
2.9830658 -3.2668739 -0.23184829
2.9297493 -3.2096097 1.0032817
3.2847929 -3.59983 -0.085063029
2.9441705 -3.2265392 1.1703797
3.2683698 -3.5931511 0.08478379
3.273167 -3.599687 0.25498078
1.8342221 -2.0179053 -0.53006739
3.1755011 -3.4947283 0.41311822
2.204775 -2.427268 -0.51936242
3.2667426 -3.5976646 0.59667231
2.9072156 -3.2028405 -0.5311066
2.7549095 -3.0350468 0.64920303
2.9896389 -3.2948004 -0.38923755
2.7316743 -3.0115605 0.79033086
2.9515201 -3.2550731 -0.23027821
2.9892007 -3.2977856 1.0275764
3.2829489 -3.6231289 -0.085342267
2.9193557 -3.2229905 1.1652033
3.2638497 -3.6134417 0.084993219
3.190363 -3.5345634 0.24953784
1.8166435 -2.0126366 -0.52701445
3.2340229 -3.5841912 0.42235673
2.1962888 -2.4349493 -0.51936242
3.2568232 -3.6119943 0.59715978
2.8907017 -3.207071 -0.53013164
2.6966865 -2.991822 0.63793975
2.9701176 -3.2963351 -0.38819168
2.7211453 -3.0210775 0.79033086
2.9334576 -3.2579348 -0.22975485
2.7325738 -3.0358961 0.94299482
3.2595815 -3.6226742 -0.085063029
2.788481 -3.0990967 1.117063
3.2592278 -3.6337444 0.085202648
1.6209534 -1.8078513 -0.56057803
3.1166851 -3.4772634 0.24472293
1.7965034 -2.0043461 -0.52319827
3.248083 -3.6251359 0.42584296
2.1877759 -2.4426009 -0.51936242
3.2283052 -3.6055938 0.59423492
2.8847849 -3.2230584 -0.5311066
2.663311 -2.9766594 0.63262098
2.9439795 -3.2903497 -0.38627425
2.7720981 -3.0993342 0.8082669
2.9127488 -3.2577322 -0.22902214
2.7310504 -3.0555868 0.94614413
3.2375898 -3.6235919 -0.084818695
2.7796773 -3.1121778 1.1180983
3.2405087 -3.6370672 0.085028124
1.5501441 -1.7404551 -0.53808292
3.1243429 -3.507918 0.24618834
1.7911524 -2.0117588 -0.52357988
3.2360438 -3.635887 0.42584296
2.1783508 -2.4483666 -0.51904956
3.1200256 -3.5079987 0.57644199
2.8556152 -3.2118376 -0.52769426
2.638196 -2.9672966 0.62886655
2.9184927 -3.2837128 -0.38435683
2.8452591 -3.2024402 0.83269046
2.9019297 -3.2673733 -0.22902214
2.7157275 -3.0587974 0.94434453
3.2242283 -3.6328126 -0.08478379
2.9288984 -3.3000575 1.1822854
3.1973173 -3.6139098 0.084225313
1.5543875 -1.7575335 -0.54168214
3.215974 -3.6375551 0.25445742
1.780218 -2.0135863 -0.52243503
3.2259713 -3.6501466 0.42619158
2.1606359 -2.4455929 -0.51685947
3.2128865 -3.6378997 0.59594109
2.8430725 -3.2202979 -0.52745052
2.6390666 -2.9902757 0.63168237
2.8977841 -3.2834235 -0.38313665
2.8418562 -3.2211857 0.83498016
2.8812593 -3.2669975 -0.22828944
2.7462729 -3.1150352 0.95874139
3.2221051 -3.6560469 -0.085063029
2.9563719 -3.3557063 1.1983322
3.0790987 -3.5048646 0.081432928
3.217073 -3.6632066 0.25550414
1.7770641 -2.0242142 -0.52357988
3.2026967 -3.6494051 0.42479709
2.1625078 -2.4649995 -0.51936242
3.1949329 -3.6431227 0.59496613
2.8383573 -3.2376659 -0.52866921
3.1155373 -3.555092 0.74869535
2.8836788 -3.2905218 -0.38278802
2.8616434 -3.2665276 0.844139
2.8593111 -3.2650148 -0.22745207
3.007509 -3.4354498 1.0541206
3.2080065 -3.6657671 -0.085028124
2.9452278 -3.3654916 1.1983322
3.074733 -3.5246326 0.081642357
1.5958733 -1.8300286 -0.56057803
3.1832635 -3.6503293 0.25382939
1.7751478 -2.0363246 -0.52510636
3.1964832 -3.6680727 0.42566865
2.1331298 -2.4487014 -0.51435652
3.1848038 -3.657247 0.59545361
2.8048809 -3.2221005 -0.52452565
2.7478008 -3.1576425 0.66296926
2.8695594 -3.2975617 -0.3824394
2.8759942 -3.3061214 0.85177136
2.8387226 -3.2644259 -0.22671936
3.0095621 -3.4621051 1.0590696
3.1781396 -3.6573203 -0.084574362
2.9435993 -3.3874175 1.2024733
3.1540608 -3.6411474 0.084085694
3.1777059 -3.6710326 0.25445742
1.7487553 -2.0202429 -0.51938209
3.1980005 -3.6957812 0.42758607
2.1258615 -2.4576265 -0.51466939
2.9876439 -3.4551184 0.56084272
2.7741444 -3.2093448 -0.52086957
2.6701412 -3.0890259 0.64670008
2.8515179 -3.3000205 -0.38156784
3.1698734 -3.6697431 0.94259644
2.8403635 -3.2894319 -0.22776608
2.987272 -3.4607879 1.0554703
3.0255713 -3.5063952 -0.080839547
2.924855 -3.3908694 1.1998851
3.1726276 -3.6885198 0.08492341
1.5830585 -1.8411252 -0.56057803
3.1590041 -3.673978 0.25393406
1.7250564 -2.0069797 -0.51442105
3.1318442 -3.6449635 0.4204393
2.1314279 -2.4815157 -0.51811095
3.0221189 -3.5197457 0.56961731
2.7590461 -3.2144898 -0.52013836
2.6227848 -3.0568148 0.63793975
2.8334944 -3.3023936 -0.38069628
3.1532098 -3.6763151 0.94145158
2.8158636 -3.2841642 -0.22671936
2.9764415 -3.4726739 1.0559202
3.0029046 -3.5047867 -0.080560308
2.900434 -3.386386 1.1947087
3.1486997 -3.6879568 0.084644171
1.5762998 -1.846915 -0.56057803
3.1260683 -3.6627439 0.25236398
1.7342541 -2.0327049 -0.51938209
2.9594376 -3.4699587 0.39899899
2.1197552 -2.4863047 -0.51748521
3.1431119 -3.6879245 0.59496613
2.7459585 -3.2230696 -0.51989462
2.5890393 -3.0388857 0.63230811
2.8187878 -3.3097231 -0.38034766
3.1358962 -3.6833629 0.94030673
2.8141633 -3.3066307 -0.22755674
2.9700073 -3.4909811 1.0581698
3.0509278 -3.5873643 -0.082200834
2.8992645 -3.4102403 1.1993675
3.1383934 -3.7019761 0.084713981
2.9363593 -3.4648871 0.23802393
1.7284171 -2.0402441 -0.5197637
4.5413509 -5.3625622 0.61479661
2.0804313 -2.4575047 -0.50997636
3.1225254 -3.6897816 0.5935037
2.7641791 -3.2674924 -0.52550061
2.5847949 -3.0554452 0.63387245
2.8072176 -3.3195423 -0.38034766
3.1141476 -3.6837916 0.9376354
2.7845558 -3.2950769 -0.22609133
2.9464853 -3.4879292 1.0541206
3.1325705 -3.7095223 -0.084748886
2.9745737 -3.5236734 1.2356021
3.1378713 -3.7052917 0.42479709
3.1068513 -3.6921196 0.25288734
1.7099106 -2.0327434 -0.51632914
4.5187576 -5.373807 0.61427367
2.0565876 -2.4466064 -0.50622193
3.1057955 -3.6960995 0.59277249
2.7297744 -3.2497613 -0.52111331
3.1077404 -3.6997249 0.7652774
2.800738 -3.3354244 -0.38104491
3.1037942 -3.697647 0.93839864
2.7768883 -3.3093667 -0.22640535
2.913002 -3.4728114 1.0464723
3.1196027 -3.7204344 -0.084748886
3.0745853 -3.6667467 1.2821895
1.5568729 -1.8633204 -0.56057803
3.1105924 -3.7228668 0.25424808
1.7065802 -2.0432201 -0.517474
4.4961411 -5.3849595 0.61375074
2.0809451 -2.4932005 -0.51435652
3.0992334 -3.7145393 0.59399118
2.7298573 -3.2729902 -0.52330696
3.089746 -3.7044825 0.76402593
2.7865263 -3.3421199 -0.38069628
3.094639 -3.7129831 0.93954349
2.7819396 -3.3389876 -0.22776608
2.9095919 -3.4934403 1.0496216
2.9095558 -3.4946371 -0.079373544
3.0883134 -3.7106578 1.2935776
3.1582576 -3.7558702 0.42932919
3.1119273 -3.7271077 0.42479709
3.0981779 -3.7330989 0.084679076
1.5503592 -1.8687436 -0.56057803
3.0943765 -3.7311679 0.25403873
1.6956779 -2.0446312 -0.51632914
4.4773167 -5.4006212 0.61375074
2.041978 -2.4639463 -0.50684767
3.0951133 -3.7360356 0.59569735
2.7146173 -3.2779126 -0.52257574
3.0805759 -3.7198093 0.76496453
2.7697611 -3.3456874 -0.37999904
3.0904212 -3.7343503 0.94221482
2.7626288 -3.3394446 -0.22713805
2.9296695 -3.5426208 1.0613191
3.0808122 -3.7267102 -0.084399838
3.0722988 -3.7164118 1.2920247
3.0876715 -3.7469772 0.084748886
3.0889511 -3.7511974 0.25466676
1.6835385 -2.0444756 -0.51480267
3.0731691 -3.7333595 0.42305398
2.0308545 -2.4680084 -0.50622193
3.0744868 -3.7376184 0.59423492
2.7107236 -3.2965682 -0.52403818
3.0769564 -3.7432832 0.76746749
2.7631262 -3.3614919 -0.38069628
3.046207 -3.7071937 0.93267437
2.7649001 -3.3660445 -0.22828944
3.0360052 -3.6974087 1.1045097
3.0817408 -3.7544439 -0.08478379
3.0672347 -3.7381015 1.2956481
3.1052563 -3.7456169 0.42566865
3.0701628 -3.751006 0.084609266
3.0771512 -3.7608831 0.25466676
1.6755065 -2.0485275 -0.51442105
3.0796889 -3.7666667 0.42566865
2.0301597 -2.4839064 -0.50809914
3.0771473 -3.7662401 0.59715978
2.6909869 -3.2947769 -0.52233201
3.0589335 -3.7452816 0.76590314
2.7570041 -3.3768096 -0.38139353
3.0338968 -3.7172749 0.93267437
2.7385715 -3.3566242 -0.22703338
3.0064842 -3.6863138 1.098211
3.0926803 -3.7920007 -0.085412077
3.0579175 -3.7507136 1.2966834
3.0652757 -3.7704762 0.084818695
3.0614858 -3.7685011 0.25445742
1.6695833 -2.0558876 -0.51480267
3.0677778 -3.7789407 0.42584296
2.0144415 -2.4814232 -0.50622193
3.0533832 -3.7625511 0.59496613
2.6800462 -3.3036824 -0.52233201
3.0570394 -3.769745 0.76871896
2.7502187 -3.3926037 -0.38209078
2.9918816 -3.6907132 0.92351554
2.7400001 -3.3812044 -0.2280801
2.9856569 -3.6856637 1.0950617
3.0618066 -3.7810163 -0.08492341
3.0484529 -3.7658695 1.2982363
3.0514356 -3.7816856 0.084818695
3.0483126 -3.7791647 0.25445742
1.6463766 -2.0418349 -0.50984164
3.0558185 -3.7911775 0.42601727
2.0301209 -2.5195536 -0.51247931
3.3645736 -4.1772156 0.65858193
2.6666747 -3.3119369 -0.52208827
3.0302345 -3.7634683 0.7652774
2.7433566 -3.4083914 -0.38278802
2.8847999 -3.5854039 0.89451257
2.732596 -3.3974495 -0.22849878
2.9806758 -3.707213 1.098211
3.0448307 -3.7870056 -0.084818695
3.0268173 -3.7659472 1.2946129
3.0400963 -3.796018 0.25487611
1.6551899 -2.0674933 -0.51480267
3.0338518 -3.7909322 0.42479709
1.9995375 -2.4985106 -0.50684767
3.0320018 -3.7899762 0.59594109
2.656917 -3.322312 -0.52233201
3.0232464 -3.7817375 0.76684175
2.7314424 -3.4179467 -0.38278802
2.8569611 -3.5750126 0.88955154
2.7337806 -3.4220971 -0.2295455
2.7239408 -3.4110005 1.0077807
3.0340882 -3.8007366 -0.084888505
3.0112433 -3.7734699 1.2935776
3.01434 -3.7909027 0.084539457
3.02492 -3.8055715 0.25477143
1.6402729 -2.0643234 -0.51251296
3.019937 -3.8020263 0.42479709
1.9653621 -2.4752295 -0.50059029
3.0248317 -3.8109193 0.59740352
2.6459564 -3.3335826 -0.52257574
3.0069098 -3.789698 0.76621601
2.7300396 -3.4419839 -0.38435683
2.9115184 -3.6721053 0.91092214
2.7243423 -3.4372645 -0.22985952
2.7640718 -3.4886413 1.0275764
3.0238629 -3.8165337 -0.084993219
2.998592 -3.7859957 1.2940952
3.0054311 -3.8082681 0.25424808
1.6269772 -2.0623297 -0.51060487
3.0041795 -3.8094158 0.42444847
1.979161 -2.5096528 -0.50622193
2.9949722 -3.7991041 0.59399118
2.6453621 -3.3568307 -0.52476939
2.9961077 -3.8032744 0.76684175
2.7315675 -3.4687109 -0.38627425
2.8726034 -3.6478069 0.90252655
2.7141643 -3.4478492 -0.22996419
2.6681296 -3.3905879 0.99608327
3.0142314 -3.8317807 -0.085097934
2.9913289 -3.8040325 1.2966834
3.0031693 -3.8328384 0.084993219
2.9902213 -3.8176856 0.2541434
1.6181972 -2.0667332 -0.51022325
3.0037052 -3.8376596 0.42636589
1.9573376 -2.501676 -0.50309324
2.9791397 -3.8090123 0.59374744
2.5798776 -3.299718 -0.51428863
2.973631 -3.8033368 0.76465167
2.7347855 -3.4991068 -0.3885403
2.7788015 -3.5567037 0.87733976
2.7181166 -3.4802825 -0.2314296
2.6778764 -3.4299927 1.0046314
2.9952446 -3.8364979 -0.084958315
2.9738006 -3.8104019 1.2951305
2.9867583 -3.8380418 0.084888505
2.979329 -3.8312535 0.25435275
1.6109731 -2.0723692 -0.51022325
2.9829558 -3.8386817 0.42532002
1.9393343 -2.4956746 -0.50059029
2.972581 -3.826709 0.59496613
2.5957061 -3.3427487 -0.51965088
2.9603367 -3.8136935 0.76465167
2.740876 -3.532243 -0.39115497
2.7585668 -3.5550415 0.87466843
2.7273709 -3.5161054 -0.23320902
2.6306636 -3.3926535 0.99113435
2.9720339 -3.8342859 -0.084679076
2.956932 -3.816178 1.2935776
2.9708977 -3.8452793 0.084818695
2.9666077 -3.8411122 0.25435275
1.5956936 -2.066822 -0.50755193
2.978731 -3.8595934 0.42654021
1.9426773 -2.5180691 -0.50371898
2.9640544 -3.8433496 0.59594109
2.5064528 -3.2511724 -0.5040516
2.9524981 -3.8297472 0.76590314
2.8981991 -3.760672 -0.41538427
2.741348 -3.558428 0.87314196
2.9307762 -3.8056905 -0.25173595
2.618805 -3.4018156 0.99113435
2.9544233 -3.8377822 -0.084539457
2.9430826 -3.8244315 1.2930599
2.9508259 -3.8455912 0.084609266
2.9507511 -3.8482743 0.2541434
1.5896637 -2.0739375 -0.50793355
2.9591814 -3.86206 0.42566865
1.9391221 -2.5307695 -0.50497045
2.9525001 -3.8547335 0.59618483
2.4377315 -3.1838113 -0.49235215
2.9415131 -3.8431672 0.76652888
2.9625379 -3.8720368 -0.42654021
2.719989 -3.5550253 0.87008902
2.9521141 -3.8598087 -0.25466676
2.6157951 -3.4213179 0.99428366
2.9531518 -3.8639597 -0.084888505
2.9179867 -3.8193305 1.2878836
2.9342883 -3.8531989 0.084539457
2.9373001 -3.8585509 0.2541434
1.5919257 -2.0919726 -0.51098649
2.9493011 -3.8771232 0.42619158
1.9226593 -2.5284253 -0.50309324
2.929943 -3.8544667 0.59447866
2.4260458 -3.1927247 -0.49235215
2.9209092 -3.8439747 0.76465167
2.9550297 -3.8902873 -0.42741176
2.7140644 -3.5743522 0.87237873
2.9355323 -3.867421 -0.25445742
2.5949922 -3.4200152 0.99113435
2.9396461 -3.8742446 -0.084888505
2.8859576 -3.8048659 1.2796014
2.9227007 -3.864503 0.084574362
2.9189965 -3.8624069 0.25372472
1.5763297 -2.0865513 -0.50831516
2.9261437 -3.874675 0.42479709
1.9095023 -2.5284817 -0.50184176
2.9231252 -3.8720831 0.59569735
2.410662 -3.1944141 -0.49137719
2.8896288 -3.8304924 0.75995863
2.9486297 -3.9101232 -0.42845763
2.7104709 -3.5943053 0.87505005
2.9250959 -3.8803241 -0.25466676
2.5859823 -3.4317144 0.99203415
2.9309172 -3.8908712 -0.085028124
2.864524 -3.8041139 1.2759779
2.9155628 -3.8874026 0.084818695
2.9077387 -3.8783806 0.25403873
1.5577096 -2.0784495 -0.5048806
2.9208013 -3.8986383 0.42619158
1.899337 -2.5361266 -0.50184176
2.9075582 -3.8837861 0.59569735
2.3793438 -3.178221 -0.48747737
2.8855517 -3.8557934 0.76277445
2.9324007 -3.9198209 -0.42828332
2.6983722 -3.6083013 0.87581329
2.9125672 -3.894726 -0.25487611
2.5681192 -3.4353753 0.99023454
2.9123647 -3.8972909 -0.08492341
2.8591454 -3.8274664 1.280119
2.9062392 -3.9018608 0.08492341
2.8960543 -3.8896036 0.2541434
1.5543252 -2.0883284 -0.50602546
2.9078569 -3.9083026 0.42619158
1.8720544 -2.5170503 -0.49683586
2.9041382 -3.9061509 0.59764726
2.3853729 -3.2083964 -0.49088972
2.7890887 -3.7527737 0.74056076
2.907504 -3.9135303 -0.42654021
2.6899034 -3.621958 0.87695814
2.8996358 -3.904363 -0.25487611
2.5520665 -3.4376138 0.98843493
2.9006165 -3.908533 -0.084958315
2.8706084 -3.8695087 1.2909894
2.8813924 -3.8954 0.084574362
2.8867024 -3.9040037 0.25445742
1.5473915 -2.0934712 -0.50602546
2.8889605 -3.9099118 0.42532002
1.8590028 -2.5168887 -0.49558439
2.891169 -3.9157599 0.59764726
2.3770786 -3.2194829 -0.49137719
2.6745726 -3.6237281 0.71334116
2.8968761 -3.926357 -0.42688883
2.7035146 -3.6656183 0.88535374
2.8859894 -3.9144608 -0.25487611
2.5371837 -3.4413523 0.98708523
2.8923849 -3.9245693 -0.085097934
2.8543233 -3.8743407 1.2894365
2.8684589 -3.9049336 0.084574362
2.8772867 -3.9183844 0.25477143
1.5416025 -2.1001737 -0.50640707
2.8818723 -3.9275021 0.42619158
1.8506463 -2.5230395 -0.49558439
2.8640823 -3.9061154 0.5947224
2.3476085 -3.201734 -0.48747737
2.6578701 -3.6262045 0.71208968
2.8850174 -3.9375489 -0.42706314
2.7249859 -3.7204954 0.89642066
2.8741726 -3.9256211 -0.25498078
2.5153969 -3.4355958 0.98303611
2.8876218 -3.9454349 -0.085342267
2.8437413 -3.8869029 1.2904718
2.8635508 -3.9283483 0.0848536
2.858201 -3.9224472 0.25435275
1.5269592 -2.0962885 -0.50411737
2.8698035 -3.9412596 0.42654021
1.8367365 -2.5234171 -0.49433291
2.8672654 -3.940664 0.59837848
2.3358578 -3.2103169 -0.48747737
2.724735 -3.7461495 0.73367764
2.8811112 -3.9625998 -0.42863194
2.8567667 -3.9305592 0.94450453
2.8557551 -3.9291674 -0.25456209
2.5520419 -3.5125843 1.0023819
2.8672662 -3.9479021 -0.085167743
2.8453655 -3.9191858 1.2977187
2.8434728 -3.9281036 0.084644171
2.8463488 -3.9335218 0.25445742
1.517698 -2.0981591 -0.50335413
2.8613877 -3.9572127 0.42723745
1.8283584 -2.5294941 -0.49433291
2.8483689 -3.9421054 0.59715978
2.3251991 -3.2180452 -0.48747737
2.8094542 -3.8896779 0.75995863
2.8597907 -3.9608247 -0.42741176
2.829929 -3.9209079 0.93992511
2.8497231 -3.9483328 -0.25519012
2.5654643 -3.5557957 1.0122797
2.8494797 -3.9509011 -0.085028124
2.8323534 -3.9285998 1.2977187
2.8342007 -3.9471144 0.084818695
2.8393766 -3.9557799 0.25519012
1.5027633 -2.0944004 -0.50106442
2.8392047 -3.9584564 0.42619158
1.8105752 -2.5252582 -0.49214283
2.8482447 -3.9739884 0.60032839
2.3128256 -3.2269496 -0.48747737
2.7369746 -3.8201477 0.74431518
2.8445612 -3.9717763 -0.42741176
2.8239958 -3.9445157 0.94297806
2.8368669 -3.9624938 -0.25539947
2.550658 -3.5640354 1.0118298
2.8307979 -3.9569341 -0.08492341
2.8105053 -3.930018 1.2946129
2.8176132 -3.9516067 0.084713981
2.8250839 -3.9635474 0.25508545
1.4992274 -2.1041689 -0.50220928
2.8341534 -3.9792097 0.42741176
1.7976084 -2.5248116 -0.49089135
2.8120297 -3.9510657 0.59545361
2.3021119 -3.2346014 -0.48747737
2.6865018 -3.7760866 0.73399051
2.8290652 -3.9779401 -0.42706314
2.8063496 -3.9474583 0.94145158
2.8260257 -3.975135 -0.25560881
2.5614026 -3.6042435 1.0208279
2.8280836 -3.9809715 -0.085237553
2.800813 -3.9440417 1.2961658
2.8077308 -3.9684369 0.0848536
2.8116911 -3.9755059 0.25519012
1.4926386 -2.1112528 -0.50259089
2.8138003 -3.9814353 0.42654021
1.7701056 -2.5055693 -0.48588545
2.8078355 -3.9759393 0.59764726
2.2902411 -3.2430174 -0.48747737
2.688593 -3.8085005 0.73837067
2.8271027 -4.006189 -0.42898057
2.7986527 -3.9673431 0.94374129
2.8010756 -3.9707778 -0.25466676
2.603204 -3.6916447 1.0428731
2.8146257 -3.9929446 -0.085272458
2.7874513 -3.9558599 1.2966834
2.7957051 -3.9793621 0.084888505
2.7927531 -3.9766356 0.25466676
1.4845012 -2.1145842 -0.50220928
2.8063044 -3.9988987 0.42741176
1.7754004 -2.5308311 -0.48963988
2.7843778 -3.9706009 0.59545361
2.2794742 -3.2505943 -0.48747737
2.619255 -3.7365183 0.72272723
2.8160889 -4.0188053 -0.42932919
2.7888602 -3.981426 0.94488615
2.7959137 -3.9914957 -0.25539947
2.7228425 -3.888622 1.0959615
2.7967824 -3.9957033 -0.085132839
2.7776404 -3.9698302 1.2982363
2.7845319 -3.9945035 0.084993219
2.7815848 -3.9917608 0.25498078
1.4610308 -2.0974576 -0.49686662
2.7802437 -3.9928069 0.42566865
1.7683696 -2.5405639 -0.49026561
2.7822776 -3.9987036 0.59813474
2.2675449 -3.2589271 -0.48747737
2.5299704 -3.6374403 0.70176501
2.7933787 -4.0176488 -0.42810901
2.7776102 -3.9964573 0.946031
2.7839856 -4.0071225 -0.25571348
2.7508236 -3.9593908 1.1130578
2.7798373 -4.0026423 -0.085063029
2.7586648 -3.9736365 1.2961658
2.7689941 -4.0004269 0.08492341
2.7660595 -3.9976781 0.25477143
1.461885 -2.1135937 -0.49953795
2.7681209 -4.0036434 0.42584296
1.7498269 -2.5317888 -0.48744979
2.765617 -4.0030083 0.59740352
2.2567254 -3.2664286 -0.48747737
2.571777 -3.72383 0.71678272
2.7732487 -4.0170522 -0.42706314
2.762112 -4.0024146 0.94526776
2.7752187 -4.0229086 -0.25613217
2.6701773 -3.8706423 1.0856138
2.7710896 -4.0184234 -0.085202648
2.7454726 -3.9827627 1.2961658
2.7543132 -4.0105489 0.08492341
2.7581711 -4.0176689 0.25539947
1.4552393 -2.1205563 -0.49991957
2.7511741 -4.0104762 0.42549434
1.7383014 -2.534927 -0.48682406
2.7430701 -4.0016565 0.59569735
2.2441667 -3.2750697 -0.48747737
2.5971919 -3.7902642 0.72773313
2.7630106 -4.0337647 -0.42776039
2.7396596 -4.001172 0.94259644
2.7683521 -4.0445904 -0.25686487
2.6850066 -3.924291 1.0977611
2.7545107 -4.0273834 -0.085167743
2.7330378 -3.9959877 1.2972011
2.7448022 -4.0267482 0.085063029
2.736681 -4.0178468 0.25477143
1.4500387 -2.1288683 -0.5006828
2.7427648 -4.0282896 0.42636589
1.7272193 -2.5377133 -0.48619832
2.7346682 -4.0194135 0.59691604
2.2327209 -3.2828834 -0.48747737
2.6021628 -3.8275292 0.7330519
2.753394 -4.0499755 -0.42845763
2.7278833 -4.0139583 0.94335967
2.7441159 -4.0393603 -0.25592283
2.6680075 -3.9288031 1.0964114
2.7482976 -4.0485554 -0.085412077
2.7259666 -4.0171679 1.3008245
2.729609 -4.0346486 0.085028124
2.7199856 -4.0219365 0.25445742
1.434902 -2.1225317 -0.49801148
2.7387269 -4.0526963 0.4279347
1.7194563 -2.5453638 -0.48651119
2.7206212 -4.0289348 0.59691604
2.2212478 -3.290657 -0.48747737
2.547905 -3.7760028 0.72147575
2.7403546 -4.0612136 -0.42863194
2.722638 -4.0364769 0.94641262
2.7456311 -4.0720984 -0.25738823
2.6520989 -3.9348603 1.0955116
2.7363835 -4.0614409 -0.085481887
2.7137097 -4.0277875 1.3013422
2.7077056 -4.032531 0.08478379
2.7114953 -4.0396982 0.25498078
1.4329535 -2.135679 -0.49991957
2.7190146 -4.0539581 0.42706314
1.7028605 -2.5398652 -0.4843211
2.7032255 -4.03346 0.59618483
2.1677626 -3.2357212 -0.4782153
2.5182211 -3.7602539 0.71678272
2.7261616 -4.0707544 -0.42863194
2.7030707 -4.0377989 0.94450453
2.7236247 -4.0700384 -0.25665553
2.699024 -4.0348 1.1207062
2.7121858 -4.0560072 -0.085167743
2.696412 -4.0324179 1.2997892
2.7035934 -4.0569344 0.085097934
2.6944569 -4.0462844 0.25477143
1.4200491 -2.1324974 -0.49801148
2.7125752 -4.0750344 0.42828332
1.6939844 -2.5457938 -0.4843211
2.6913285 -4.0461771 0.59667231
2.1718421 -3.266411 -0.48162765
2.6129234 -3.9297892 0.74744387
2.7064211 -4.0719492 -0.42776039
2.6933055 -4.0537507 0.946031
2.7237657 -4.1011496 -0.25801626
2.6860014 -4.0458203 1.1211561
2.7013284 -4.0704483 -0.085272458
2.6784105 -4.0374442 1.2982363
2.6761781 -4.0463322 0.084679076
2.6887345 -4.0668598 0.25550414
1.4180088 -2.1456308 -0.49991957
2.6895484 -4.0711791 0.42688883
1.6894418 -2.5582849 -0.48557258
2.6848436 -4.0671437 0.59837848
2.1320003 -3.2308936 -0.47529044
2.6692026 -4.0465213 0.76778035
2.7020644 -4.0963399 -0.42932919
2.670493 -4.0500152 0.94297806
2.6962434 -4.0906212 -0.2567602
2.6804399 -4.0681897 1.1247553
2.6838037 -4.0748429 -0.085167743
2.6685502 -4.0532232 1.3003069
2.6639118 -4.0615945 0.08478379
2.672004 -4.0754835 0.25539947
1.3989983 -2.1346394 -0.49610339
2.6979167 -4.1181412 0.43072368
1.6752774 -2.5581428 -0.4843211
2.6605091 -4.0641358 0.59642857
2.1434921 -3.2755993 -0.48065269
2.6597617 -4.0645419 0.7693447
2.6841344 -4.1033501 -0.42898057
2.6592202 -4.0668119 0.94450453
2.6848878 -4.107631 -0.25717889
2.6658653 -4.0800832 1.1252052
2.6768856 -4.0985117 -0.085446982
2.6529673 -4.0634398 1.3003069
2.6584449 -4.0842761 0.085063029
2.6512262 -4.0747411 0.25477143
1.3979609 -2.1493845 -0.4983931
2.6596331 -4.090785 0.42688883
1.6620318 -2.5573498 -0.48306963
2.657121 -4.0900445 0.59886595
2.1082596 -3.2464351 -0.47529044
2.6520128 -4.0837415 0.77122191
2.6773885 -4.1243926 -0.43020075
2.6535577 -4.0892448 0.94755747
2.6640116 -4.1069244 -0.25655086
2.6431252 -4.0762833 1.121606
2.6625628 -4.1078308 -0.085446982
2.6461203 -4.0840246 1.3039303
2.6495969 -4.1019296 0.085237553
2.6391533 -4.0873266 0.25498078
1.3712857 -2.1245601 -0.49152397
2.6528986 -4.1117631 0.42810901
1.6638014 -2.5797364 -0.48619832
2.6417522 -4.0976262 0.59862221
2.0775584 -3.2237396 -0.47090314
2.628111 -4.07803 0.76840609
2.6597384 -4.1286885 -0.42967781
2.6392674 -4.0984825 0.94755747
2.658308 -4.1296336 -0.25738823
2.6341527 -4.0936786 1.1238555
2.6503712 -4.1204635 -0.085516792
2.6283823 -4.086278 1.3018598
2.6374207 -4.1145205 0.085307363
2.6399553 -4.1200572 0.25644619
1.3765681 -2.1491723 -0.49610339
2.6288608 -4.105897 0.42654021
1.6420081 -2.565563 -0.48244389
2.6338515 -4.1168557 0.60008465
2.0684318 -3.2343167 -0.47139062
2.6276956 -4.1088131 0.77247339
2.6377984 -4.1261968 -0.42845763
2.6260021 -4.1093246 0.94793909
2.6406511 -4.1338382 -0.25707422
2.6208959 -4.104491 1.1243054
2.6338201 -4.1263187 -0.085446982
2.6123486 -4.0942554 1.3013422
2.6112364 -4.1051417 0.08492341
2.61948 -4.1212775 0.25592283
1.3680045 -2.1523075 -0.49572177
2.6134441 -4.1133668 0.42636589
1.6393968 -2.581284 -0.4843211
2.6247848 -4.1344038 0.60130334
2.067766 -3.2582779 -0.47382801
2.6143956 -4.1196283 0.77278626
2.6255137 -4.1387441 -0.42880625
2.6063849 -4.110176 0.946031
2.6283439 -4.1464044 -0.25728356
2.6065525 -4.1136146 1.1243054
2.6215406 -4.138866 -0.085516792
2.6008246 -4.1061598 1.3023774
2.600093 -4.1193047 0.085028124
2.6157328 -4.1472893 0.25696955
1.3521046 -2.1437851 -0.49266883
2.6065079 -4.1342621 0.42758607
1.6198443 -2.570279 -0.48119241
2.6039884 -4.1334633 0.59984091
2.039455 -3.2385995 -0.46992819
2.6024359 -4.134198 0.77372486
2.6163578 -4.1563143 -0.42967781
2.5951586 -4.1242339 0.94717585
2.6021567 -4.1369569 -0.25613217
2.5952893 -4.1276373 1.1256551
2.6092055 -4.1513778 -0.085586601
2.5898682 -4.1222079 1.304448
2.5910053 -4.1368292 0.085202648
2.5871274 -4.1322407 0.25550414
1.3446132 -2.1484918 -0.49266883
2.5984009 -4.1534698 0.42863194
1.6003888 -2.5591692 -0.47806373
2.5958575 -4.1526274 0.60130334
2.0260338 -3.2423319 -0.46944071
2.5876653 -4.1411301 0.773412
2.6050002 -4.1704913 -0.43020075
2.5880251 -4.1449247 0.94984718
2.5993327 -4.1646525 -0.25728356
2.5757078 -4.1284047 1.1234056
2.5904658 -4.1536733 -0.085446982
2.5782288 -4.134052 1.3054833
2.581827 -4.1543404 0.085377172
2.5825011 -4.1586625 0.25655086
1.3267482 -2.1364939 -0.48885265
2.5796836 -4.1557436 0.4279347
1.5956119 -2.571454 -0.4793152
2.5729755 -4.1481679 0.59935343
2.0230721 -3.2628813 -0.47139062
2.5724699 -4.1505865 0.773412
2.594625 -4.186333 -0.43089799
2.5735408 -4.1539333 0.94984718
2.5816248 -4.1686065 -0.25696955
2.5633327 -4.1406843 1.1243054
2.575951 -4.1626904 -0.085446982
2.5661083 -4.1484027 1.3070362
2.5662603 -4.1616253 0.085342267
2.5645042 -4.1604027 0.25613217
1.3254617 -2.1511408 -0.49114235
2.562027 -4.1596337 0.42741176
1.5928401 -2.5871007 -0.48119241
2.569925 -4.1757203 0.60203456
2.0272726 -3.2952846 -0.4750467
2.5507225 -4.1477622 0.77122191
2.5726904 -4.1834844 -0.42967781
2.5600533 -4.1645639 0.9502288
2.5722861 -4.186101 -0.2574929
2.5529433 -4.1562488 1.126105
2.5634974 -4.175065 -0.085516792
2.5452618 -4.1453653 1.3034127
2.5464996 -4.1620291 0.085167743
2.5635131 -4.1914792 0.2574929
