9.3793016 1.9936321 0.50252985
4.1961259 0.89114868 -0.83383531
10.51483 2.2311602 0.94041046
10.467385 2.2172747 1.3137515
9.4905586 2.0103565 -1.191151
10.451326 2.2119671 1.6919952
10.551472 2.2312385 -0.94354807
10.424452 2.2024778 2.0710408
10.526845 2.2241114 -0.56386759
13.511013 2.8521431 3.1880063
10.515026 2.2177803 -0.18757846
17.461017 3.6796134 4.781423
2.6717279 0.55961317 -0.73142262
10.422589 2.1811896 0.18586813
3.263713 0.68241967 -0.76978251
9.3780412 1.9608832 0.50211116
4.2374933 0.88525848 -0.84146767
10.442206 2.1795886 0.93326369
10.408606 2.168784 1.3054644
9.4524758 1.9695603 -1.185545
10.387049 2.1624006 1.680419
10.494442 2.1828471 -0.93779579
10.368266 2.1547146 2.0584474
10.452032 2.1721227 -0.55947137
13.638696 2.8318864 3.2159003
10.44596 2.1670574 -0.18621718
17.507173 3.6287479 4.7907405
2.6697847 0.54997078 -0.73038735
10.188852 2.0970312 0.18157484
3.265958 0.67159305 -0.76978251
9.4744832 1.9482789 0.50692607
4.1634822 0.85539746 -0.82620295
10.383019 2.1313278 0.9273371
10.349622 2.1207075 1.2971773
9.4317295 1.9326253 -1.1821326
10.320623 2.1128888 1.66853
10.423544 2.1320638 -0.93082333
10.308032 2.1065623 2.0450908
10.404758 2.1244375 -0.55654056
13.30242 2.7160805 3.134468
9.1050618 1.857411 -0.16220267
17.549397 3.576845 4.7990227
2.6299389 0.53267749 -0.71899931
10.307468 2.0858397 0.18356441
3.2758075 0.66230379 -0.77158212
9.3830094 1.8970598 0.50169248
4.1624471 0.84080871 -0.82543971
10.304097 2.079542 0.9196674
10.296271 2.0742224 1.2896214
9.4380865 1.9013379 -1.1821326
10.265604 2.06618 1.6585182
10.348519 2.0809893 -0.92350225
10.241819 2.0576731 2.0305893
10.337334 2.074986 -0.55256303
13.397332 2.6892114 3.1547136
10.322857 2.0702059 -0.18377384
17.574421 3.5212862 4.8026462
2.6527164 0.52717681 -0.72469333
10.26797 2.0387005 0.1827267
3.278213 0.6502929 -0.77158212
9.448672 1.8743152 0.50483263
4.1847589 0.82936361 -0.82925589
10.254971 2.030539 0.91461236
10.227855 2.0214599 1.2801156
9.4060434 1.8590349 -1.1772579
10.205279 2.0151473 1.6475678
10.289616 2.0299348 -0.91757566
10.178022 2.0060741 2.0164695
10.275929 2.0253714 -0.54889951
13.479755 2.654397 3.1718099
9.1452762 1.7992051 -0.16269133
17.623225 3.4639282 4.8124813
2.6677222 0.52096907 -0.72831679
10.207943 1.9916198 0.18153993
3.245922 0.63270728 -0.76348388
4.2029025 0.81848412 -0.83230884
10.185375 1.9816813 0.90781422
10.158503 1.9727731 1.2706098
9.3868236 1.8229135 -1.1740893
10.145972 1.9685021 1.6369302
10.2337 1.9836695 -0.91199769
10.122941 1.9603672 2.0042577
10.210039 1.9772342 -0.54502665
13.522922 2.616345 3.1799081
9.1767159 1.773802 -0.1631451
14.358829 2.7728725 3.9185203
2.6545234 0.50781804 -0.72417569
10.158555 1.9415232 0.18052769
3.290439 0.62828002 -0.77338172
10.138669 1.9358885 0.54094444
4.2021573 0.80160438 -0.8315456
10.136151 1.9317409 0.90275918
10.097749 1.9207696 1.2620789
9.3137987 1.7716485 -1.164096
10.091355 1.9177285 1.6269184
10.184476 1.9335831 -0.90694266
10.070599 1.9101419 1.9924275
10.145287 1.9224741 -0.54115379
13.310767 2.5223146 3.1277195
10.152104 1.9219304 -0.18035317
14.240293 2.6933055 3.883321
2.6561928 0.49901254 -0.72417569
10.107941 1.8971282 0.17951545
3.2925044 0.61736508 -0.77338172
10.080252 1.8901101 0.53749027
4.2163706 0.789834 -0.83383531
10.077875 1.886023 0.8970069
10.045523 1.8763394 1.2547668
9.2708389 1.7316411 -1.1580025
10.016101 1.8690348 1.6137779
10.120321 1.8866547 -0.90066745
10.024766 1.8670307 1.9821238
10.09859 1.8789563 -0.53832765
13.593026 2.5291354 3.1920555
10.071917 1.8721747 -0.17881736
14.186466 2.6344286 3.8662389
2.6483339 0.48844957 -0.7215875
10.041413 1.8501914 0.17822397
3.3136989 0.60997123 -0.77788075
10.021644 1.8447405 0.5340361
4.2189666 0.77584767 -0.83383531
10.011569 1.839273 0.89055738
10.004829 1.8344247 1.248917
9.2511472 1.6962343 -1.1548339
9.9678388 1.8258444 1.6050176
10.054007 1.8398145 -0.89421792
9.9555831 1.8200079 1.9672407
10.049432 1.8371646 -0.53539683
13.729779 2.5075029 3.2221989
10.02102 1.828356 -0.17780512
14.086794 2.5676244 3.8367335
2.653741 0.48035288 -0.72262277
9.9687818 1.8026494 0.17682778
3.2888557 0.59412922 -0.77158212
9.9707086 1.8012008 0.53100061
4.2215162 0.76185281 -0.83383531
9.9489856 1.7936906 0.88445648
9.9502915 1.79034 1.2413611
9.2449989 1.6634379 -1.1533715
9.913568 1.7819462 1.5953187
9.9914169 1.7941393 -0.88811702
9.8939295 1.7748512 1.9538841
9.984697 1.7911338 -0.53162864
13.929837 2.4963349 3.2671891
9.9620709 1.7834859 -0.17665326
13.964015 2.4974292 3.8010165
2.6421683 0.46826334 -0.71899931
9.9024662 1.753201 0.1755363
3.2910112 0.58207097 -0.77158212
9.9084077 1.7524694 0.5273371
4.2242802 0.74637506 -0.83383531
9.8966312 1.7468241 0.87922713
9.8707668 1.7387062 1.2306366
9.2236637 1.6247209 -1.1499591
9.8597225 1.7349866 1.5856197
9.9410189 1.7475034 -0.88306199
9.8365572 1.7273706 1.9412907
9.9144756 1.7410536 -0.52754644
13.37842 2.3469404 3.1358177
9.9035414 1.7355701 -0.1755014
14.02255 2.4548934 3.8144751
2.6627398 0.46280715 -0.72417569
9.8629106 1.7124856 0.17473349
3.2775627 0.56849011 -0.7679829
9.8492246 1.7083386 0.52388292
4.226732 0.73236274 -0.83383531
9.8572159 1.7061805 0.87521797
9.8080139 1.6941382 1.2221058
9.1996589 1.589057 -1.146303
9.8031302 1.6915326 1.5756079
9.8839293 1.7036982 -0.87748402
9.7861226 1.6850805 1.9302238
9.8631142 1.6983377 -0.52451095
13.699176 2.3564106 3.2091517
9.8442055 1.6915439 -0.17434954
14.030614 2.4083794 3.8144751
2.6643391 0.45350964 -0.72417569
9.813629 1.6686614 0.17375616
3.3102667 0.5622671 -0.77518133
9.7842418 1.6619076 0.52011473
4.1789374 0.70906523 -0.82391324
9.7904298 1.6594427 0.86876844
9.7629782 1.6512842 1.2157686
9.1973205 1.5556103 -1.1453281
9.7349597 1.6447976 1.5637189
9.8269488 1.6585758 -0.87190605
9.7377389 1.6417712 1.9195385
9.807929 1.6536052 -0.52126612
13.505542 2.2745942 3.161912
9.7908906 1.6472179 -0.1733024
14.069418 2.3645116 3.8227573
2.6277178 0.43831488 -0.71382293
9.7559885 1.6255917 0.1726392
3.2698226 0.5442477 -0.76528349
9.7345348 1.6202708 0.51718392
4.2316191 0.70357554 -0.83383531
9.7270876 1.615542 0.86266754
5.6532916 0.93792392 -0.90763277
9.7135657 1.6098122 1.2089439
9.1867615 1.5225059 -1.1433782
9.6857927 1.6034726 1.5549586
9.7616298 1.614277 -0.86563084
9.6869566 1.6001914 1.9084716
9.754242 1.6113063 -0.51812597
13.739894 2.267234 3.2150005
9.737107 1.6049843 -0.17225525
14.103868 2.3222367 3.8300042
2.6331949 0.42884302 -0.7148582
9.6930772 1.5768813 0.17141754
3.2911233 0.53481424 -0.76978251
9.6874566 1.5742314 0.51435778
4.2342894 0.68732214 -0.83383531
9.6761847 1.5689331 0.85761251
5.668551 0.91810493 -0.90950998
9.6648062 1.563626 1.2021192
9.1690244 1.4834157 -1.1404533
9.6294757 1.5561854 1.5449468
9.72055 1.5691628 -0.86144736
9.6135625 1.5501705 1.8928252
9.7073918 1.5635621 -0.51529983
13.667693 2.2014447 3.1961046
9.6879174 1.5586907 -0.17127792
14.147013 2.2735824 3.8393217
2.646049 0.42193391 -0.71796403
9.6409838 1.5356074 0.1704053
3.2389917 0.51532412 -0.75718525
9.6373951 1.5333111 0.51142696
4.2365454 0.67327696 -0.83383531
9.628205 1.5284032 0.8529061
5.6637604 0.89806486 -0.9082585
9.6032761 1.5210095 1.1938321
9.0876244 1.4393383 -1.1297288
9.5838544 1.5162188 1.5368122
9.666661 1.5275899 -0.85621802
9.5604729 1.5090991 1.8813767
9.6454452 1.5207865 -0.51174098
13.597919 2.1439686 3.1781085
9.6456246 1.5190895 -0.1704402
14.188826 2.2320605 3.8486392
2.6436881 0.41209982 -0.71692875
9.5949122 1.4939459 0.16949777
3.2696547 0.5085069 -0.76393378
9.5736149 1.4889185 0.50776345
4.1690303 0.64763538 -0.82009706
9.580323 1.4865369 0.84819969
5.6941897 0.88252481 -0.91263867
9.54379 1.4774567 1.1857887
9.1475216 1.4161112 -1.1365535
9.5344277 1.4743035 1.5280519
9.6168013 1.4853223 -0.8513373
9.524936 1.4694317 1.8733627
9.5872703 1.4790481 -0.50839148
13.510946 2.0819475 3.1560633
9.5797172 1.4744595 -0.16918363
14.211806 2.1848671 3.8527803
2.6526793 0.40449562 -0.71899931
9.5464373 1.4539902 0.16855534
3.2790293 0.49883389 -0.76573339
9.5192634 1.4481515 0.50462329
4.171155 0.63380681 -0.82009706
9.5261049 1.4457903 0.84297034
9.4956434 1.4377763 1.1792078
9.118801 1.380717 -1.1324099
9.4689502 1.4320441 1.5167886
9.5586326 1.4439009 -0.84575933
9.471518 1.4290508 1.8619142
9.5585488 1.4421819 -0.50661206
13.432988 2.0243547 3.1362676
9.5153443 1.4322663 -0.16796196
13.414703 2.0168103 3.6348547
2.6311457 0.39181903 -0.71278765
9.4861826 1.4109497 0.16740348
3.2614747 0.4845213 -0.76123437
9.4768466 1.4078705 0.50211116
9.4601426 1.402014 0.83669513
9.4574019 1.3982343 1.1738455
9.1058914 1.346265 -1.1302163
9.4211283 1.3911912 1.5083411
9.4926561 1.4000606 -0.83948411
9.4045838 1.3853939 1.8477943
9.496587 1.3972535 -0.50305321
13.364782 1.9663894 3.1187214
9.4708247 1.3917744 -0.16708934
13.324181 1.9556643 3.6084551
2.6400774 0.38420451 -0.7148582
9.4255056 1.3699927 0.16625162
3.2630635 0.47370319 -0.76123437
9.4320496 1.369263 0.49949437
4.1948019 0.60821732 -0.82391324
9.4213598 1.3643533 0.83286028
9.4128692 1.3597693 1.167752
9.1299527 1.3188996 -1.1326537
9.3768115 1.3528898 1.5005194
9.4499182 1.361754 -0.83530064
9.356659 1.3466482 1.8374906
9.44186 1.3572287 -0.49991305
13.309504 1.9131866 3.1043245
9.4239236 1.3529717 -0.16618181
13.26175 1.9015976 3.5898202
2.6376424 0.37398317 -0.71382293
9.3710653 1.327026 0.16520448
3.2647778 0.46174029 -0.76123437
9.3737224 1.3257335 0.49614487
9.3710572 1.3220202 0.82797956
9.3430922 1.3147489 1.15849
9.0678907 1.2760229 -1.1243666
9.3367156 1.3121898 1.4933234
9.4074927 1.3204626 -0.83111716
9.3168142 1.3060766 1.8287134
9.3891805 1.3162212 -0.49687757
13.24309 1.8541244 3.0872283
9.3892106 1.3128838 -0.16548372
13.201666 1.8436264 3.5717028
2.6350408 0.36470467 -0.71278765
9.3397589 1.2910146 0.16457619
3.2276824 0.44558143 -0.75223633
7.5994 1.0490969 0.40204482
4.249512 0.58588918 -0.83383531
9.329993 1.2846865 0.82397039
9.292335 1.2761962 1.1516653
9.0956719 1.2491868 -1.1272914
9.2744759 1.2720943 1.4826859
9.358523 1.2819582 -0.82641075
9.2724657 1.2685211 1.819173
9.3400653 1.2777691 -0.49405143
13.152625 1.7970085 3.0647332
9.3301099 1.2730895 -0.16436676
13.129226 1.7891433 3.5504797
2.6477226 0.35751559 -0.71589348
9.292463 1.2530875 0.16366867
3.2445927 0.43695635 -0.75583554
7.577105 1.0204252 0.40068408
4.2514315 0.57179407 -0.83383531
9.2710129 1.2452527 0.81839242
9.2551981 1.2398397 1.1465468
8.9974534 1.2053119 -1.114617
9.2218632 1.2337358 1.4736127
9.3094019 1.2437932 -0.82170434
9.2279711 1.2312742 1.8096325
9.2868394 1.2391289 -0.49101594
13.083177 1.7433445 3.047187
9.2649026 1.2329105 -0.1631451
13.062317 1.7359245 3.5308094
2.6354864 0.34696836 -0.71227001
9.2390709 1.2147063 0.16265643
3.2808027 0.43076086 -0.76393378
7.4834143 0.98255283 0.39555516
4.1559747 0.54493082 -0.81475441
9.21385 1.206483 0.81298877
9.2198911 1.2040006 1.141672
8.950223 1.1687854 -1.1082798
9.1828104 1.1975284 1.4667295
9.2522285 1.2049389 -0.81630069
9.1716508 1.1928172 1.7978024
9.2394024 1.2016287 -0.48829447
13.019316 1.6909139 3.0309905
9.219363 1.19575 -0.16227248
12.995199 1.6831692 3.5111392
2.6329079 0.33681622 -0.71123474
9.1799866 1.1727265 0.16153947
3.2320995 0.41232152 -0.75223633
7.6078187 0.97053551 0.40194014
4.1813142 0.53267196 -0.81933383
9.1727515 1.1669214 0.8089796
9.1671321 1.1629549 1.1346036
8.9032447 1.1294778 -1.1019426
9.1283464 1.1564157 1.4573435
9.2032135 1.1642682 -0.81159428
9.1175278 1.1518116 1.7863538
9.1862808 1.1604971 -0.48525899
12.955823 1.6344038 3.014794
9.1720993 1.155453 -0.16136495
12.918861 1.6251599 3.4888807
2.6282592 0.32736699 -0.70968182
9.1242929 1.1348736 0.16049233
3.2411846 0.40256199 -0.75403593
7.5594625 0.93890125 0.39921867
4.1324011 0.51252063 -0.80941176
9.1291159 1.1306199 0.80479613
9.0960734 1.1233039 1.1253415
8.9305828 1.1028669 -1.1048675
9.0929205 1.1213034 1.4510861
9.1595648 1.1278988 -0.8074108
9.0745314 1.1158201 1.777195
9.1286264 1.1224717 -0.48201416
12.883803 1.5819321 2.9967979
9.1322142 1.119677 -0.16059704
12.85323 1.5736242 3.4697281
2.6504824 0.32074361 -0.71537584
9.0944494 1.0989388 0.15989895
3.2503089 0.39217946 -0.75583554
7.5250191 0.90796229 0.39722991
4.1185717 0.49621402 -0.80635881
9.08751 1.0932729 0.80078696
9.0605197 1.0868175 1.1204667
8.9107265 1.0688496 -1.1019426
9.0457839 1.0834484 1.4429515
9.1159671 1.0902407 -0.80322733
9.0276865 1.0780845 1.7672729
9.0930149 1.0842764 -0.47992072
12.80604 1.5270278 2.9774522
9.0844395 1.0816458 -0.15968952
12.812605 1.5232748 3.4573048
2.6169963 0.30788948 -0.70605836
9.0444206 1.0624752 0.15895652
3.2593334 0.38230698 -0.75763515
7.5279887 0.88300344 0.39722991
4.1162947 0.48209687 -0.80559558
9.0475496 1.0580404 0.79695211
9.0167523 1.0512486 1.114617
8.906335 1.0383752 -1.1009676
8.986539 1.0461363 1.4329397
9.0680767 1.0540242 -0.79869523
9.0000093 1.0445204 1.761167
9.044977 1.0481394 -0.47719925
12.75296 1.4778235 2.9639551
9.0283832 1.0446196 -0.15864237
12.725469 1.4701364 3.4324582
2.6046712 0.29676479 -0.70243489
8.9906344 1.0227639 0.15794428
3.2568402 0.3699185 -0.75673535
7.493469 0.85112338 0.39524114
4.1219356 0.46744911 -0.80635881
8.9781164 1.0165784 0.79050259
8.9810934 1.0137404 1.1097422
8.8786947 1.0006128 -1.0970678
8.9510539 1.0087676 1.4266823
9.0065424 1.0134292 -0.79294295
8.9315909 1.0034169 1.7470472
9.0150161 1.0111961 -0.47541983
12.696568 1.4219045 2.9495582
8.9904185 1.0068482 -0.15790937
12.659737 1.4155425 3.4133056
2.6248931 0.28979089 -0.70761127
7.415807 0.81871272 0.13022986
3.2464269 0.35783536 -0.75403593
7.508306 0.82627196 0.39586917
4.100124 0.45048505 -0.8017794
8.934078 0.98001869 0.78631911
8.9311268 0.97811746 1.1031613
8.8188175 0.96425999 -1.0892682
8.9034641 0.97194286 1.4185477
8.9743732 0.97809866 -0.78980534
8.8743667 0.96719915 1.735217
8.9547825 0.97438206 -0.47207033
8.9441774 0.97006916 -0.15703675
12.608902 1.365312 3.3982941
8.9356261 1.0007119 2.0758483
2.618205 0.27980539 -0.70554072
7.4306884 0.79279982 0.13043929
3.2244633 0.34345736 -0.74863711
7.5866134 0.8080967 0.39984671
4.1250985 0.43866141 -0.80635881
8.9037631 0.94525126 0.78335582
8.8754296 0.93911037 1.0958491
8.8183442 0.93151386 -1.0887807
8.8655492 0.9365003 1.4119775
8.9301791 0.94175142 -0.78562187
8.8388028 0.93055534 1.7275846
8.8907588 0.93445641 -0.46851148
8.8377371 0.92732412 2.0515536
8.9077335 0.93466868 -0.15633866
12.530974 1.3126361 3.3760356
2.6191657 0.27066445 -0.70554072
8.8694087 0.91656422 0.15564056
3.2372152 0.33396263 -0.75133652
7.5695204 0.77956346 0.39879999
4.0719217 0.41863747 -0.79567351
8.8468989 0.90643595 1.0919493
8.7976873 0.89984224 -1.0858558
8.8235655 0.90093303 1.4047815
8.899716 0.90713893 -0.78265857
8.8027773 0.89725807 1.7199523
8.8759257 0.90314881 -0.46756943
8.7826007 0.89210405 2.0380566
7.1442715 0.72442889 -0.12534318
12.491273 1.2644121 3.3641299
2.6258157 0.26255411 -0.70709363
8.8068904 0.87904452 0.1544887
3.2383612 0.3226606 -0.75133652
7.5263533 0.74990327 0.39639253
4.1123599 0.40901835 -0.80330587
6.6537449 0.66061361 0.58498935
8.7946965 0.8700768 1.0851246
8.7848193 0.86909963 -1.0839059
8.7655644 0.86564988 1.3950826
8.8471574 0.87214851 -0.77777785
8.7726408 0.86325672 1.7134648
8.8193934 0.86630318 -0.46442928
8.7526908 0.85820884 2.0304082
8.7984604 0.86269659 -0.15431418
12.422336 1.2158318 3.3444597
2.6171015 0.25245923 -0.70450544
7.4303712 0.71677226 0.13029967
3.2549316 0.31341426 -0.75493574
7.5527823 0.72591981 0.3976486
4.0903112 0.39241119 -0.79872645
7.2252222 0.69189177 0.63501674
8.7640861 0.83616713 -1.0809811
8.7075718 0.82924163 1.3853836
8.7866775 0.8352276 -0.77219988
8.6972774 0.82672958 1.6982001
8.7884161 0.83384516 -0.46264985
8.6972868 0.82366721 2.0169112
8.7735467 0.82934434 -0.15382551
12.339955 1.1642963 3.321166
2.6045019 0.24207083 -0.70088197
7.4329484 0.68953377 0.13029967
3.2482967 0.30076357 -0.75313613
7.5672027 0.7006561 0.39827663
4.0994757 0.37885361 -0.80025293
7.304968 0.6738038 0.64181489
6.7012323 0.61575675 0.82627415
8.7334864 0.80095754 -1.0768375
8.6868079 0.7966766 1.3816292
8.7458894 0.80055577 -0.76836503
8.6650571 0.7916318 1.6913309
8.7377101 0.79673158 -0.45982371
8.6730772 0.78931186 2.0106125
7.4261746 0.67583483 -0.13016005
12.301618 1.1173701 3.3097779
2.6091794 0.23332208 -0.70191725
8.6979621 0.77780263 0.15242932
3.2182198 0.28721846 -0.7459377
7.8998399 0.70365219 0.41565216
4.1007732 0.36454146 -0.80025293
7.7359479 0.68633235 0.67946617
6.6992827 0.59318111 0.82578667
8.6906145 0.76797288 -1.0712315
8.6521488 0.76305188 1.3756847
8.7148904 0.76705236 -0.76540173
8.6402549 0.76048322 1.6859883
8.6925537 0.7635575 -0.45731159
8.6348798 0.75697272 2.0011646
8.6994393 0.76110232 -0.15242932
12.230386 1.0678693 3.2895901
2.6253366 0.22599392 -0.70605836
8.6547999 0.74349976 0.15162651
3.2425022 0.27798049 -0.75133652
8.636425 0.7404028 0.4542761
4.0784862 0.34893256 -0.79567351
7.7679588 0.66321761 0.68208084
5.5091187 0.46939244 -0.87572014
6.6914227 0.56895174 0.82456798
8.6536826 0.7342756 -1.0663568
8.605424 0.7301808 1.367863
8.6617982 0.73344159 -0.76052101
8.5841684 0.72535931 1.6745397
8.6474014 0.72918247 -0.45479946
8.5733875 0.72143438 1.9863178
8.658077 0.72856084 -0.15166141
12.179958 1.0227797 3.2750962
2.6164452 0.21649024 -0.70347016
8.6253312 0.71216256 0.15106803
3.2705964 0.26946666 -0.75763515
8.6369663 0.71008789 0.45417143
4.0405457 0.33148337 -0.78804115
7.5815806 0.62065511 0.66552125
5.5263953 0.45241034 -0.87822309
6.7011866 0.54740553 0.82554293
8.6283705 0.70331708 -1.0629444
8.5488542 0.69533358 1.3584769
8.630546 0.70046184 -0.75755772
8.5473901 0.69371285 1.6669074
8.6139385 0.69760067 -0.45291537
8.5232877 0.68876198 1.9741705
7.3091601 0.58936503 -0.12799595
12.119908 0.97514468 3.2580141
2.6133695 0.20659455 -0.70243489
8.5680784 0.67582709 0.15002089
3.2171655 0.25319642 -0.74503789
4.0729939 0.31983631 -0.79414704
7.3413721 0.57520009 0.64425525
5.488629 0.42907295 -0.87196571
8.5298399 0.66532145 1.0505137
8.5913082 0.66860737 -1.0580696
8.5157797 0.66272946 1.3528453
8.5832782 0.66647532 -0.75319993
8.5068128 0.65904428 1.6585118
8.594533 0.66433117 -0.45176397
8.4985533 0.65542012 1.9678718
7.398899 0.57061326 -0.12953176
12.051971 0.9273486 3.2388615
2.6063692 0.19688885 -0.70036434
8.5204221 0.64364483 0.14914827
3.2413062 0.24428396 -0.75043672
6.8094071 0.51200189 0.35787327
4.0740855 0.30561696 -0.79414704
7.2181647 0.54020274 0.63327363
5.4900217 0.41086964 -0.87196571
8.5042851 0.63496258 1.0471014
8.543988 0.63642744 -1.0519762
8.4845521 0.63051113 1.3475265
8.5358789 0.63282738 -0.74884214
8.4678359 0.62778285 1.6504978
8.5369342 0.63140747 -0.44862382
8.4734717 0.62522669 1.9615732
7.4148058 0.54581042 -0.12977609
12.006968 0.88173659 3.2259206
6.7071061 0.52314951 0.82603041
2.6031869 0.18751213 -0.69932906
8.4788437 0.60925854 0.14838036
3.2033047 0.22961574 -0.74143868
7.1757158 0.51436171 0.37702823
4.1103761 0.29391435 -0.80101616
7.106728 0.5069232 0.62333787
8.538237 0.6060373 1.0510012
8.502595 0.60350746 -1.0466139
8.4532037 0.59851893 1.3422077
8.5042494 0.60064146 -0.74587885
8.430912 0.59398296 1.6428655
8.4833012 0.59767394 -0.445693
8.4289478 0.59236617 1.9507755
7.2151911 0.50580077 -0.12625071
11.954085 0.83591106 3.2109091
2.6269221 0.18046748 -0.70554072
8.4309421 0.57772067 0.14750774
3.2196022 0.220055 -0.74503789
7.5998154 0.51943604 0.39921867
4.0839062 0.27841279 -0.79567351
6.8221269 0.46388974 0.59823702
6.787399 0.45914818 0.83529248
8.4530549 0.57182505 -1.0402767
8.399957 0.56676036 1.3334474
8.4743882 0.5702966 -0.74308986
8.3760288 0.56220886 1.6317985
8.4374099 0.56632883 -0.44318088
8.3803117 0.56102712 1.9390781
8.4439091 0.56380437 -0.14771717
11.895109 0.79215752 3.1943447
6.7422767 0.47856145 0.82993023
7.2048572 0.48107221 -0.12604128
2.617927 0.17021142 -0.70295253
8.4150434 0.5456513 0.1471936
3.2320552 0.20900763 -0.7477373
7.410331 0.47920461 0.38917017
4.0848992 0.26344266 -0.79567351
7.3069336 0.46995699 0.64059471
6.8286572 0.43680243 0.84016725
8.4273593 0.53906514 -1.0368644
8.3546649 0.53295105 1.3259385
8.4287006 0.53619679 -0.73890639
8.3760738 0.53138111 1.6314169
8.3996568 0.53140532 -0.44108744
8.3473044 0.52809323 1.9309799
8.3920342 0.52945254 -0.14677474
11.838163 0.74479409 3.1782979
2.6030516 0.16057755 -0.69881142
3.2171698 0.19733415 -0.74413809
6.9154948 0.42418129 0.36310686
7.3541918 0.44851331 0.64460387
6.8241237 0.41379493 0.83943604
8.3676755 0.50739141 -1.0293085
8.3208944 0.50309714 1.3203069
8.3906568 0.50584532 -0.73542016
8.3052804 0.49924346 1.617297
8.3854234 0.50259218 -0.44025006
8.3081595 0.49796126 1.9215319
7.0363726 0.42050244 -0.12303947
11.786572 0.70231582 3.163804
2.6016412 0.15183209 -0.69829378
3.19057 0.18508455 -0.73783946
6.7912472 0.39395937 0.35651253
4.0865566 0.23634499 -0.79567351
7.2800535 0.41976524 0.63798004
8.3058932 0.47600591 1.0215088
8.34553 0.47827747 -1.0263836
8.2791294 0.47302238 1.3134238
8.3465373 0.47541219 -0.73141099
8.2676883 0.46947337 1.6096647
8.3311276 0.47307571 -0.43731925
8.2805807 0.46875557 1.9147834
7.0417214 0.39739201 -0.12310928
11.719399 0.65931984 3.145169
2.6098461 0.14362852 -0.70036434
7.0143832 0.38479693 0.12262061
3.1833828 0.1740776 -0.73603985
6.8024877 0.37198189 0.35703589
4.048111 0.22065508 -0.78804115
7.345068 0.39908039 0.643558
8.2638175 0.44610583 1.0161466
8.3014794 0.44813894 -1.0207776
8.2569822 0.44429154 1.3096693
8.3042983 0.44538397 -0.72757614
8.2319511 0.44006291 1.6024139
8.2807959 0.44267405 -0.43459778
8.2353861 0.4388051 1.9039857
8.3030326 0.44095624 -0.14513421
11.657859 0.61708347 3.128087
2.6064964 0.13386382 -0.69932906
6.9957756 0.35806318 0.12227156
3.1664836 0.16151531 -0.73199073
6.7260134 0.34307903 0.35295369
4.088107 0.20780991 -0.79567351
8.2618068 0.41852508 0.72374129
8.2217802 0.41362016 1.0107843
8.2554841 0.41531573 -1.0149279
8.2072598 0.41145362 1.3015347
8.2740364 0.41335362 -0.72478716
8.1942922 0.40793603 1.5947816
8.2544357 0.41093015 -0.43313237
8.174656 0.40552821 1.8895889
8.2526643 0.40795415 -0.14422669
11.623382 0.5725453 3.1182519
2.5857001 0.12420008 -0.69363504
6.9949271 0.33476679 0.12223665
3.1767344 0.15147807 -0.73424024
6.7390841 0.32134365 0.35358172
4.061319 0.19294779 -0.79033086
8.2253362 0.3893358 0.72042937
8.1973288 0.38514234 1.0076157
8.2211237 0.38626032 -1.0105406
8.1631951 0.38211073 1.2943388
8.2355571 0.3840574 -0.72130093
8.1544159 0.37884716 1.5867676
8.217846 0.38179407 -0.43114361
8.1428627 0.37688616 1.8819405
7.1173527 0.32817635 -0.12436585
11.578901 0.53187015 3.1058285
2.5977377 0.11478247 -0.69674087
6.9741856 0.30693865 0.1218527
3.171452 0.13902317 -0.73289054
6.8300587 0.29940115 0.35829196
4.0228022 0.17563934 -0.7826985
8.1829793 0.35584568 0.71659452
8.1670153 0.35229529 1.0037159
8.1828813 0.35297969 -1.0056658
8.1349988 0.34949176 1.2896457
8.1971597 0.35072899 -0.7178147
8.1322728 0.34653076 1.5821882
8.1853288 0.34879156 -0.42936419
8.116992 0.34446037 1.8756419
8.215414 0.34720067 -0.14352859
11.490141 0.48358854 3.0814996
2.5923133 0.10593081 -0.69518796
6.973167 0.28372843 0.1218178
3.191367 0.12929435 -0.73738956
7.0345674 0.28499694 0.36896849
4.0508258 0.16340612 -0.78804115
8.1403171 0.32694891 0.71275966
8.1245012 0.32347315 0.99835366
8.1562375 0.32473672 -1.0022535
8.1045318 0.32126134 1.2846398
8.1504975 0.32165866 -0.71363122
8.0784485 0.31740311 1.5715029
6.7894369 0.2667577 -0.35609385
8.0791446 0.31601821 1.8666438
7.4012624 0.28820891 -0.12928743
11.447282 0.44376203 3.0695939
2.5984418 0.097551227 -0.69674087
6.9520883 0.25978163 0.12143384
3.1800939 0.11827611 -0.73469014
7.1532307 0.26604759 0.37514413
4.0905836 0.15142471 -0.79567351
8.0935716 0.2981923 0.70857619
8.0739511 0.29464729 0.99201646
8.1136265 0.29609519 -0.99689123
8.0660711 0.29295006 1.2783824
7.2137164 0.26073287 -0.63153051
8.0382549 0.28913026 1.5634889
6.762383 0.24205629 -0.35462844
8.0450932 0.28797029 1.8585456
7.1923424 0.25618958 -0.12562242
11.410078 0.4044304 3.0592411
2.6045432 0.089132165 -0.69829378
3.1532019 0.1068063 -0.72839151
7.1700425 0.24286607 0.37598151
3.9654863 0.13362737 -0.77124996
7.0032995 0.2347707 0.61305349
6.9142432 0.22936907 0.84942932
8.0314607 0.2650277 1.2727508
7.2165326 0.23687526 -0.63170482
8.0038498 0.2613197 1.5566198
6.729213 0.21852805 -0.35284902
7.9934157 0.25958244 1.8463983
8.1105342 0.26196877 -0.14164373
11.368878 0.36522636 3.0478531
2.5951838 0.079743405 -0.69570559
6.9596918 0.21263782 0.12153856
3.1730339 0.096390642 -0.73289054
7.0790151 0.2150468 0.3711666
3.9934016 0.12061421 -0.77659261
6.9323827 0.20817033 0.60677828
7.1432238 0.21075811 -0.87745927
7.982974 0.23553463 1.2649291
7.2093494 0.21144977 -0.63100758
7.9831265 0.23275009 1.552422
6.9715017 0.20203813 -0.36551432
7.9670424 0.2294978 1.8400996
8.0234491 0.23112264 -0.14010792
11.292841 0.3233278 3.0271476
2.5877218 0.070473668 -0.69363504
6.9583597 0.18950304 0.12150365
3.1733361 0.085867952 -0.73289054
6.7622731 0.18180063 0.35452377
3.9937983 0.1066739 -0.77659261
6.8812832 0.18259643 0.60224618
6.9612856 0.18350349 0.85503531
7.1260237 0.1866015 -0.87526562
7.9403039 0.20653739 1.258046
7.1841511 0.18561418 -0.62874153
7.9406773 0.20516026 1.5440264
7.0200518 0.18014836 -0.36802644
7.9346418 0.20223278 1.8324513
7.1626143 0.18130495 -0.12506394
11.251413 0.28283841 3.0157595
2.5918253 0.061079749 -0.69467032
6.9830258 0.16334468 0.12192251
3.1580567 0.073320758 -0.72929132
6.8886874 0.159935 0.3611181
4.0137898 0.092487441 -0.78040879
6.8520282 0.1566908 0.59963151
6.9698772 0.15695155 0.85601027
7.1068417 0.15879479 -0.87282824
7.9133592 0.17681556 1.2536658
7.1409614 0.1583102 -0.62490668
7.9119648 0.17402125 1.5383021
7.9119804 0.17125847 1.8270525
6.9713049 0.15089712 -0.12171308
11.188638 0.24022955 2.9986775
2.5823654 0.051838357 -0.69208213
7.0055213 0.14062871 0.12230646
3.1504891 0.062692778 -0.72749171
6.6395949 0.13096454 0.34803411
3.9944593 0.078092391 -0.77659261
7.9202537 0.1534595 0.69306247
6.9663899 0.13376152 0.85552279
7.0894666 0.13488692 -0.87063459
7.898128 0.14889384 1.2511629
7.1076058 0.13275013 -0.62194338
7.8791289 0.14716002 1.5318146
7.0371365 0.13020533 -0.36886382
7.8676913 0.14419912 1.8167047
7.2337061 0.13131649 -0.12628561
11.162367 0.20068627 2.9914305
2.6076337 0.04369541 -0.69881142
3.1389979 0.051503318 -0.7247923
6.6100378 0.10845464 0.34646403
4.0104003 0.065100779 -0.77964556
7.5999857 0.12204368 0.66499832
7.8679351 0.1235994 0.96618015
7.0620871 0.11094013 -0.86722225
7.8491999 0.12193481 1.2433411
7.096054 0.10899614 -0.62089751
7.838371 0.11902983 1.5238006
7.0655066 0.10606003 -0.37032923
7.813588 0.11592542 1.8041075
7.8839313 0.11696906 -0.13762968
11.106953 0.16284811 2.976419
2.5923168 0.03438781 -0.69467032
7.3162418 0.097051998 0.12771671
3.15474 0.041297808 -0.72839151
6.6023878 0.085277462 0.34604534
3.9713412 0.050601214 -0.7720132
7.2318025 0.090882294 0.63275069
7.0286722 0.087102623 0.86307869
7.0644162 0.086312421 -0.86746599
7.8140235 0.094107051 1.2377095
7.0724842 0.083941874 -0.61880577
7.8328332 0.092966301 1.5226558
7.0817964 0.08281622 -0.3711666
7.7885975 0.089722171 1.7982587
7.8602967 0.089176064 -0.13721082
11.063024 0.12358031 2.9645133
2.6001481 0.025414251 -0.69674087
7.3805356 0.070850232 0.12883366
3.1470755 0.029661366 -0.72659191
6.8023623 0.064112652 0.35651253
3.9557883 0.036593055 -0.76896025
7.6863217 0.069760759 0.67249371
7.0428393 0.061461928 0.86478486
7.0627001 0.060402485 -0.86722225
7.7688724 0.066441897 1.2305135
7.0687495 0.059220403 -0.61845715
7.7702993 0.063741564 1.510444
7.6812108 0.061670038 -0.40256818
7.7635412 0.060975964 1.79241
7.8145686 0.06137674 -0.13640801
11.013162 0.084576672 2.9510548
2.5924937 0.016289333 -0.69467032
7.3427365 0.046136381 0.12817047
3.1237721 0.019082276 -0.72119308
6.7066779 0.039798695 0.35148828
3.9794506 0.022920243 -0.77353967
7.4016112 0.041338825 0.64756717
7.5730163 0.040974361 0.92986309
7.074772 0.037043758 -0.86868468
7.7493035 0.039223084 1.2273848
7.0728979 0.034564975 -0.61880577
7.7292401 0.037772494 1.50243
7.4057544 0.034899054 -0.38812345
7.7325212 0.035089309 1.7852116
6.4969485 0.028348465 -0.11340574
10.955435 0.045890286 2.9355256
2.6118519 0.0077495434 -0.6998467
7.3028591 0.020393483 0.12747238
3.1316147 0.0081985667 -0.72299269
7.0363196 0.018421084 0.36875915
3.9520192 0.0096566239 -0.76819702
7.2821645 0.016522735 0.63710848
7.7438308 0.014867106 0.95082462
7.0788284 0.012354899 -0.86917216
7.7237111 0.013480433 1.2233175
7.084928 0.011128988 -0.61985164
7.7096924 0.010764768 1.4986138
7.7373759 0.0094529926 -0.40549899
7.6975193 0.0080608263 1.7771133
6.489008 0.0067952758 -0.11326612
10.90723 0.0095183564 2.9225847
2.6195907 -0.00091440969 -0.70191725
7.2828896 -0.0038133124 0.12712333
3.0926498 -0.0021590772 -0.71399465
7.0023876 -0.0061107375 0.36697973
3.9520289 -0.0041385565 -0.76819702
7.740427 -0.0094567203 0.67720012
7.7041357 -0.01075701 0.94594984
7.0728752 -0.011110055 -0.86844094
7.6901297 -0.013421822 1.2179987
7.1028551 -0.01363652 -0.62142045
7.6763104 -0.014737476 1.4921263
7.0383255 -0.014741056 -0.36886382
7.6565803 -0.017372259 1.7676654
7.1948825 -0.01758045 -0.12558752
10.876288 -0.028474119 2.9143024
2.6234334 -0.010531193 -0.70295253
7.0588628 -0.029568268 0.12321399
3.100416 -0.013528203 -0.71579425
6.9603816 -0.030370587 0.36478162
3.9284315 -0.017826779 -0.7636176
7.1127512 -0.033518298 0.622292
7.6702984 -0.0388232 0.94180629
7.0886674 -0.037116515 -0.87039085
7.6426276 -0.04001707 1.2104899
7.1047566 -0.038440808 -0.62159476
7.6408668 -0.042675095 1.4852572
7.14208 -0.041135882 -0.37430676
7.6291833 -0.045273016 1.7613668
7.6506999 -0.0454007 -0.13354581
6.3054461 -0.038518258 1.6895707
2.6272443 -0.019717617 -0.7039878
7.0207328 -0.052690998 0.1225508
3.1276357 -0.02401899 -0.72209288
6.9941855 -0.054933334 0.36656104
3.9322718 -0.031570979 -0.76438084
7.62661 -0.062562847 0.66726437
7.6502773 -0.064092312 0.9393689
7.1123256 -0.060826898 -0.87331571
7.6088612 -0.066401526 1.2051711
6.6961555 -0.059605254 -0.5858609
6.4294033 -0.057230783 1.2497989
7.64719 -0.069405601 -0.40078875
7.5939154 -0.070247582 1.7532685
6.8286565 -0.064360477 -0.11919994
6.2685698 -0.060175799 1.6797356
2.5692074 -0.028251049 -0.68845866
7.0344895 -0.07857927 0.12279513
3.0924516 -0.035084255 -0.71399465
7.0718393 -0.080230914 0.37064324
3.9360639 -0.045342206 -0.76514407
7.066522 -0.082637598 0.61828284
7.6162468 -0.091725157 0.93522534
7.1061001 -0.08682171 -0.8725845
7.5888308 -0.092719672 1.2020424
6.6540697 -0.082460372 -0.58220036
6.4664493 -0.081264076 1.2570497
6.7941239 -0.086567961 -0.35609385
7.570224 -0.097778184 1.7478697
6.816393 -0.088041587 -0.11899051
6.2644582 -0.08200625 1.6787003
2.619316 -0.037946676 -0.70191725
7.0681815 -0.10239849 0.12338851
3.080627 -0.045167587 -0.71129523
7.5867523 -0.11255999 0.3976486
3.8966209 -0.058492017 -0.75751171
7.5602461 -0.11480636 0.66151209
7.5742188 -0.1163408 0.93010683
6.6691055 -0.10360242 -0.81896199
7.5529085 -0.11865057 1.1964108
6.6397963 -0.10546541 -0.58098018
6.2776956 -0.099713861 1.2204143
7.1332897 -0.11454929 -0.37388807
7.5328369 -0.12228045 1.7393216
7.5918216 -0.12456332 -0.13253357
6.1636913 -0.10220724 1.6517831
2.6269019 -0.04676999 -0.7039878
6.7438827 -0.12124711 0.11773393
3.1116253 -0.056486635 -0.71849367
6.8135254 -0.12368877 0.35714057
3.9238865 -0.071917027 -0.76285436
7.5638079 -0.13995012 0.66186071
7.540026 -0.14214298 0.92596327
6.6210696 -0.12597501 -0.81311226
7.5188982 -0.14305745 1.191092
6.6194898 -0.1271007 -0.57923707
6.1340186 -0.11885016 1.1925562
7.5362157 -0.14733436 -0.3950318
6.9056046 -0.13621152 -0.12056122
6.157524 -0.12253091 1.6502302
2.5919572 -0.055198931 -0.69467032
7.4311828 -0.15825622 0.12974119
3.1114209 -0.066804846 -0.71849367
6.7870938 -0.14690978 0.35577983
3.8961325 -0.085013914 -0.75751171
7.5393704 -0.16582615 0.65976897
7.5236363 -0.16679384 0.92401336
6.6067233 -0.14762017 -0.81140609
7.4828053 -0.16850194 1.1854604
6.6070546 -0.14993504 -0.5781912
6.1453673 -0.13945789 1.1948459
7.5057346 -0.17163962 -0.39346172
6.2635369 -0.14432707 1.4464353
6.9250787 -0.16077989 -0.12091027
6.1570588 -0.14402393 1.6502302
2.6187864 -0.064916443 -0.70191725
7.4165594 -0.18514248 0.12949686
3.1189476 -0.078404213 -0.72029328
7.1459327 -0.1796347 0.37462077
3.895812 -0.098613437 -0.75751171
7.4909438 -0.19092411 0.6555855
7.4892391 -0.19349662 0.9198698
6.5883079 -0.1702196 -0.80921244
7.4565003 -0.19395304 1.1813931
6.5825905 -0.1723712 -0.57609946
6.1448148 -0.16198085 1.1948459
7.4990654 -0.19898943 -0.3931477
6.2785502 -0.16769936 1.4500345
7.0943888 -0.18949032 -0.12387718
6.1777613 -0.1660863 1.6559243
7.0880857 -0.20046432 0.12377247
3.0913992 -0.087970537 -0.71399465
3.9346929 -0.11334235 -0.76514407
7.4663331 -0.21637863 0.65349376
7.454824 -0.2173473 0.91572625
6.6035475 -0.19368163 -0.81116235
7.4281346 -0.2191643 1.1770129
6.5779657 -0.19522946 -0.57575084
6.12462 -0.18177448 1.1910297
7.4724115 -0.22308133 -0.39178697
6.285751 -0.18875283 1.4518341
7.4254822 -0.22427463 -0.12967138
6.1674891 -0.1873564 1.6533361
7.1792424 -0.2293796 0.12537809
3.0754741 -0.098799921 -0.71039543
6.7352775 -0.21637148 0.35316303
3.9224999 -0.12669603 -0.76285436
7.4456189 -0.241793 0.65175064
7.4162809 -0.24343179 0.91109521
6.5968412 -0.21768713 -0.81043113
7.4036327 -0.2443102 1.1732585
6.5752528 -0.2181236 -0.57557653
6.0022585 -0.20016417 1.1673694
6.2967028 -0.21218378 1.4545335
7.4346469 -0.25052976 -0.1298459
7.4082643 -0.26129145 0.12939214
3.0673395 -0.1087219 -0.70859582
3.8945658 -0.13940413 -0.75751171
7.4128719 -0.26663569 0.64896166
7.3876597 -0.26701989 0.90768287
6.5683101 -0.23855317 -0.80701879
6.43347 -0.23478028 1.0196398
6.5824156 -0.24136622 -0.57627377
5.9662469 -0.21877234 1.1605003
7.3908358 -0.27230133 -0.38760009
6.3057016 -0.23342367 1.456783
7.3997558 -0.27521651 -0.12925252
7.3397774 -0.27426857 1.96806
7.3833288 -0.28621999 0.12897328
3.0786249 -0.11988321 -0.71129523
7.3503344 -0.28622575 0.38550665
3.8940821 -0.15231821 -0.75751171
7.3761116 -0.28980821 0.64582405
7.3688308 -0.29209837 0.90548922
6.5714044 -0.26163734 -0.80750627
6.4168656 -0.25548446 1.0171369
6.5775974 -0.26303375 -0.57592515
6.8909313 -0.27797303 -0.36143211
6.2931655 -0.25495994 1.4540836
7.2589385 -0.29408706 -0.12680919
7.3098737 -0.29742855 1.9602954
7.1445858 -0.30069603 0.12481961
3.0743164 -0.12992707 -0.71039543
7.3333268 -0.31120401 0.38466928
3.8935267 -0.16591017 -0.75751171
7.3511682 -0.31453185 0.64373232
7.3420393 -0.31542503 0.90232062
6.5863666 -0.28411187 -0.80945618
6.4613258 -0.27984788 1.0243329
6.5746487 -0.28590569 -0.57575084
7.2511314 -0.31659123 -0.38037773
6.058661 -0.26558631 1.4000954
7.2578677 -0.31942369 -0.12680919
7.2663317 -0.32106687 1.9489074
7.009652 -0.31953238 0.12248099
3.0777375 -0.14083581 -0.71129523
7.2943462 -0.33378582 0.38268051
3.8929551 -0.17882065 -0.75751171
7.3202307 -0.33753092 0.64111764
7.3032174 -0.33930121 0.89768958
6.5912836 -0.30737826 -0.81018739
6.4879875 -0.30256115 1.028713
6.5915763 -0.30854487 -0.57731964
7.2717255 -0.3416539 1.4150395
7.3237987 -0.34538158 -0.38425059
6.0382314 -0.28581199 1.3955963
7.3166923 -0.34632631 -0.12785633
7.2362819 -0.34378599 1.9411428
6.9586212 -0.34033335 0.12160837
3.0577896 -0.15008583 -0.70679621
7.0358022 -0.34657001 0.36917784
3.85309 -0.19046989 -0.74987935
7.2851788 -0.36140304 0.63815435
7.2683472 -0.36183976 0.89354603
6.5981585 -0.32963025 -0.81116235
7.2504038 -0.36348367 1.1497933
6.6063781 -0.33235274 -0.57871413
7.2411409 -0.3642863 1.4093152
7.2867081 -0.36785369 -0.3823665
5.9769168 -0.30277754 1.3816494
7.2874792 -0.37044295 -0.12736766
7.213815 -0.36796071 1.9354488
7.0272198 -0.36951085 0.12283004
3.0650031 -0.16170285 -0.70859582
3.8641647 -0.20454117 -0.75216906
7.2580083 -0.38545725 0.6358883
7.2372383 -0.38688764 0.88988995
6.596906 -0.35381149 -0.81116235
7.2254203 -0.38752057 1.1460389
6.6250728 -0.35648179 -0.58045725
6.2281907 -0.33621655 1.2124004
7.2534016 -0.39283019 -0.38069175
5.8843111 -0.31971292 1.360504
7.2561905 -0.3942514 -0.12684409
7.1931967 -0.39208792 1.9302724
6.9041646 -0.38600273 0.12070084
3.0800155 -0.17273885 -0.71219504
7.216669 -0.40600145 0.37880765
3.8634271 -0.21802838 -0.75216906
7.2347374 -0.4095514 0.63397087
7.2141146 -0.40964712 0.88720882
6.6214609 -0.3771532 -0.81433095
6.3878276 -0.36496414 1.0133825
6.6416903 -0.3806314 -0.58202605
6.1741205 -0.35383525 1.2020967
7.2281314 -0.41550571 -0.37943568
7.2088538 -0.41692227 -0.12604128
7.1647837 -0.41562818 1.9230255
7.0544845 -0.41911361 0.12335361
3.0560503 -0.18209811 -0.70679621
6.9321743 -0.41306122 0.36394424
3.8430853 -0.22966759 -0.74835288
7.1836189 -0.43056033 0.62961309
7.2007518 -0.43410983 0.88574639
6.6419003 -0.40158195 -0.81701208
7.153603 -0.43252048 1.1350885
6.6582901 -0.40373927 -0.58359485
6.1865652 -0.37621899 1.204768
7.1967337 -0.43891033 -0.3778656
7.1934599 -0.43997085 -0.12579695
7.1344427 -0.43761107 1.9152609
7.1688106 -0.4497672 0.12537809
3.0515398 -0.19198661 -0.70589641
7.0562679 -0.44517919 0.37053857
3.8148295 -0.24134566 -0.74301023
7.1661651 -0.45462407 0.62821859
7.1675752 -0.45596955 0.88184657
7.1303648 -0.45610148 1.1316469
7.1161384 -0.45643857 -0.62386081
7.1198355 -0.45667571 1.3867998
7.1713209 -0.46123485 -0.37660954
5.9196672 -0.38177022 1.369502
7.1559608 -0.46275522 -0.12516866
7.0943156 -0.46001219 1.9049082
7.1411751 -0.47431633 0.12492433
3.0488712 -0.20304029 -0.70544651
7.1403633 -0.47551415 0.37503946
3.8374705 -0.25622998 -0.74758964
7.1446551 -0.47830504 0.62647548
7.0113681 -0.47184048 0.86283495
6.4389711 -0.43332017 -0.79239447
7.1109912 -0.4797915 1.1288311
7.1522708 -0.48383072 -0.62717272
6.0133763 -0.4078421 1.1715672
7.1337144 -0.48507702 -0.37472545
7.1363463 -0.48650728 -0.12485452
7.0733931 -0.48345585 1.8997318
7.1236042 -0.49688156 0.12464509
3.0520692 -0.21342147 -0.70634631
7.106782 -0.49820106 0.37336471
3.828719 -0.26907316 -0.74606317
7.1250548 -0.50198142 0.62490668
6.3859358 -0.4521485 -0.78605726
6.4196264 -0.45565999 1.019327
7.1286774 -0.50723834 -0.6252553
6.0687816 -0.43182186 1.1826342
7.1021836 -0.50659905 -0.37315537
7.1086751 -0.50955616 -0.12440075
7.044686 -0.50620524 1.8924849
7.0978941 -0.51999128 0.12422623
3.0513056 -0.22407388 -0.70634631
7.0752124 -0.51957112 0.37179463
3.7768988 -0.27802087 -0.7361411
7.0915592 -0.52326039 0.62211769
7.0812414 -0.52498441 0.87185328
6.3704611 -0.47340704 -0.78435109
6.313673 -0.46918695 1.0027449
6.0711529 -0.45329559 1.1833974
7.0288443 -0.52726778 1.6272959
7.0112298 -0.52594642 -0.12272532
7.0237045 -0.528115 1.8873085
6.5737407 -0.50351359 0.11508117
3.0777481 -0.23627947 -0.71264494
6.9956921 -0.53828917 0.36771243
3.7759053 -0.29120301 -0.7361411
6.8970025 -0.53311725 0.60520948
7.0517533 -0.54631714 0.86844094
6.3787519 -0.49529803 -0.78556979
7.0072026 -0.54532641 1.1131877
7.0634826 -0.55094662 -0.61985164
6.0852748 -0.47464711 1.1864503
7.056756 -0.5516611 -0.37095726
6.9998582 -0.54844231 1.6209973
7.0332739 -0.55229553 -0.12314418
6.9775227 -0.54914294 1.8754028
7.028411 -0.56302333 0.12307437
3.0574797 -0.24546189 -0.70814592
7.0137772 -0.56308307 0.36875915
3.7866605 -0.30466747 -0.73843081
6.4821204 -0.52267771 0.56895269
7.0201241 -0.56852545 0.86478486
6.3769841 -0.51756101 -0.78556979
6.9955112 -0.56776115 1.1116233
7.0377867 -0.5724287 -0.6177599
7.034881 -0.57466431 -0.36991054
6.9862477 -0.57191904 1.6182979
7.0174525 -0.57447358 -0.12289985
6.9621856 -0.57117252 1.8717793
7.0025921 -0.58433185 0.12265551
3.0605328 -0.25592429 -0.70904572
7.0038078 -0.58689517 0.36834046
3.769923 -0.31656928 -0.73537787
6.9428483 -0.58422758 0.60956726
5.0923022 -0.42850762 -0.80939192
6.9924852 -0.58963351 0.86161626
6.3712767 -0.53837072 -0.78508231
6.9757717 -0.59067655 1.1088075
6.9722175 -0.59160123 -0.61218194
6.9954601 -0.59357338 1.3646659
6.9971153 -0.59494387 -0.36802644
6.9551871 -0.59260155 1.6115494
7.0014573 -0.59777477 -0.12265551
6.9332019 -0.59316613 1.8645324
6.9784898 -0.60808422 0.12227156
3.0479261 -0.26612295 -0.70634631
6.959933 -0.60769122 0.36614235
3.7648834 -0.32938462 -0.73461463
6.9824469 -0.61211297 0.61322781
5.0906975 -0.44716896 -0.80939192
6.9546831 -0.61212543 0.85722896
6.3514639 -0.56014946 -0.78288866
6.9480868 -0.61276693 1.1047402
6.5295165 -0.5770008 -0.57348479
6.9502142 -0.61539959 1.3562703
6.9630566 -0.61776153 -0.36635169
6.9180289 -0.61498362 1.6034511
6.9714423 -0.61973185 -0.12216685
6.913771 -0.61582135 1.8598737
6.9585109 -0.62960063 0.12195742
3.0470268 -0.27622878 -0.70634631
6.9438459 -0.63071753 0.36540965
3.7676211 -0.34288038 -0.73537787
6.9604262 -0.63467331 0.61148469
5.0183668 -0.4575903 -0.79812864
6.9407538 -0.634101 0.85576653
6.3713166 -0.58319904 -0.78556979
6.9045959 -0.63322801 1.0981699
6.8290353 -0.62750019 -0.59998013
6.916855 -0.63556969 1.3501645
6.9510255 -0.63993296 -0.36582833
6.8965465 -0.63613135 1.5989521
6.9254299 -0.64001455 -0.12139894
6.8711832 -0.63621085 1.8490033
6.9343706 -0.65182793 0.12157346
3.0499244 -0.28722863 -0.70724611
6.7826393 -0.63875952 0.35703589
3.7351901 -0.35242169 -0.72927198
6.9047275 -0.65268891 0.60677828
5.0875358 -0.48180961 -0.80939192
6.9108311 -0.65569984 0.85235419
6.3969086 -0.60806541 -0.78898213
6.8768935 -0.65369091 1.0941026
6.9062535 -0.65769805 -0.60695259
6.8891874 -0.65728611 1.3452034
6.5352043 -0.62466418 -0.34405658
6.8807049 -0.65890057 1.5958028
6.8914201 -0.65992667 -0.12084046
6.8440364 -0.65659466 1.842274
6.7172199 -0.65389491 0.11780374
3.0140434 -0.2939363 -0.69914788
6.5259305 -0.63757328 0.34363789
3.7339372 -0.36545779 -0.72927198
6.9063728 -0.67717578 0.6071269
6.8888628 -0.67667282 0.8499168
6.4225147 -0.63199659 -0.79239447
6.8726039 -0.67749797 1.0937898
6.8959847 -0.68101813 -0.60625535
6.8518024 -0.67665487 1.3383343
6.7398028 -0.66678208 -0.35494246
6.8513327 -0.67902347 1.5895041
6.5368601 -0.64900877 -0.11466231
6.8128673 -0.67761281 1.8345094
6.5217905 -0.65900947 0.11441798
3.0594778 -0.30969148 -0.70994553
6.6568013 -0.67382566 0.35065091
3.7795165 -0.38324284 -0.73843081
6.8781985 -0.69866193 0.60486085
6.850789 -0.6982939 0.8455295
6.8526418 -0.69969122 -0.84577324
6.8426849 -0.69867457 1.0894096
6.875727 -0.70326092 -0.60468654
6.8395111 -0.70076292 1.3364262
6.4671058 -0.6637476 -0.34070708
6.8313512 -0.70233659 1.585455
6.4092346 -0.65893844 -0.11246331
6.8066171 -0.7009942 1.8334741
6.8377911 -0.71385474 0.12000275
3.0390523 -0.31780854 -0.70544651
6.6027625 -0.69164812 0.34792944
3.7351999 -0.39192623 -0.73003522
6.8539216 -0.72037619 0.60294343
5.0823047 -0.53417175 -0.80939192
6.8267197 -0.71872182 0.84284838
6.8581805 -0.7232443 -0.8467482
6.8068088 -0.71902804 1.0840908
6.8573797 -0.72558024 -0.60329205
6.7961502 -0.71910155 1.3284122
6.4350772 -0.68203209 -0.339137
6.7941033 -0.72128319 1.5773568
6.3651373 -0.67686629 -0.11173031
6.7810768 -0.72229407 1.8272625
6.8251882 -0.73783708 0.11982822
6.8008588 -0.73640782 0.3585013
3.714291 -0.40284522 -0.72621904
6.815712 -0.74042327 0.59980582
6.8023321 -0.74137232 0.84016725
6.8141725 -0.74266279 -0.84162969
6.7669469 -0.73871087 1.0781463
6.8250964 -0.74626415 -0.60067738
6.7641952 -0.74079985 1.322688
6.4384902 -0.70626659 -0.33945101
6.7604207 -0.74277471 1.5701584
6.3349075 -0.69602312 -0.11124164
6.7593117 -0.74384684 1.8220861
6.7968678 -0.75758645 0.11937446
6.7684735 -0.75681367 0.35693122
3.705058 -0.41493406 -0.72469256
6.7398269 -0.75599272 0.5933563
6.7919455 -0.76303911 0.8391923
6.7977301 -0.76489041 -0.83992351
6.7604012 -0.76188498 1.0775206
6.7868131 -0.76606115 -0.59753977
6.7538979 -0.76234584 1.3211615
6.4460359 -0.72873533 -0.33997437
6.7482386 -0.76409273 1.5679088
6.3324393 -0.71813183 -0.11124164
6.7298008 -0.76438441 1.8148391
6.7564365 -0.77696673 0.11871127
6.7242596 -0.77445565 0.35473311
3.6958603 -0.42631831 -0.72316609
6.6066541 -0.76324746 0.58185174
6.7537465 -0.78262968 0.834805
6.7812158 -0.78701231 -0.83821734
6.72448 -0.78042769 1.0722018
6.7664239 -0.78649249 -0.59597097
6.7141441 -0.78160347 1.3139107
6.4533719 -0.75238821 -0.34049773
6.7300456 -0.78583575 1.5643096
6.7352081 -0.78643856 -0.11836222
6.6984474 -0.78333124 1.8070746
6.7319787 -0.79678218 0.11832732
6.6937486 -0.79462674 0.3532677
3.7255421 -0.4429251 -0.72927198
6.7226545 -0.80043803 0.59231043
6.7176049 -0.80102588 0.83066144
6.7391469 -0.80478757 -0.83334257
6.7099465 -0.80248829 1.0703246
6.7438548 -0.8077375 -0.59422785
6.7017687 -0.80269668 1.3120027
6.7264845 -0.80684786 -0.35504713
6.6887061 -0.80350052 1.5553116
6.7403634 -0.81089943 -0.11850184
6.6784104 -0.80462867 1.8024158
6.2745909 -0.76486532 0.11033411
6.6236703 -0.80859094 0.34970886
3.7006678 -0.45241813 -0.72469256
6.6349254 -0.81231556 0.58481503
6.6930946 -0.82180868 0.82798032
6.7146238 -0.82564176 -0.83066144
6.6856817 -0.82208298 1.0668831
6.7292744 -0.82863548 -0.59318199
6.6774924 -0.82344224 1.3078049
6.7077695 -0.82836445 -0.35420975
6.6723225 -0.82516931 1.5521623
6.7038995 -0.82907445 -0.11790846
6.6373614 -0.82202183 1.7920631
6.6371107 -0.83140172 0.1167566
6.3889504 -0.80258102 0.33746225
3.6990661 -0.46533311 -0.72469256
6.5213506 -0.82152556 0.57505359
6.6765462 -0.84226008 0.82627415
6.6921546 -0.84541573 -0.82822406
6.6435762 -0.84045691 1.0606257
6.6947155 -0.84811354 -0.590393
6.6610913 -0.84385389 1.3051335
6.6831905 -0.84783869 -0.35305836
6.6328186 -0.84262475 1.5436141
6.6890624 -0.85095622 -0.11769903
6.6325352 -0.8449414 1.7915454
6.677801 -0.86018495 0.1175245
6.3902155 -0.82427415 0.33767159
3.6975026 -0.4775971 -0.72469256
6.4237458 -0.83087895 0.56668664
4.8720648 -0.63104145 -0.77810503
6.6519108 -0.86275184 0.82359302
6.661603 -0.86519116 -0.82481172
6.632917 -0.8614655 1.0593742
6.6721087 -0.8677398 -0.58864989
6.6269561 -0.86304369 1.2990276
6.6841513 -0.87167877 -0.3532677
6.6221076 -0.86476312 1.5418145
6.6584438 -0.86950817 -0.11721036
6.5779771 -0.86016792 1.7775692
6.6312979 -0.87655949 0.1167566
6.4011589 -0.8484121 0.33840429
3.6568892 -0.48533499 -0.7170602
6.4267315 -0.85408436 0.56720957
4.8699454 -0.64719433 -0.77810503
6.4955291 -0.864381 0.80458141
6.6449233 -0.88544169 -0.82310555
6.6122473 -0.88226215 1.0565584
6.6394165 -0.88706675 -0.58603521
6.5793005 -0.87903489 1.2902504
6.3565659 -0.85040544 -0.33610151
6.6018201 -0.88438937 1.5377654
6.621675 -0.88822562 -0.11661698
6.5711052 -0.88260977 1.7765339
5.9744362 -0.80989917 0.10523801
6.4024202 -0.86905499 0.33861364
3.6514557 -0.49629222 -0.71629697
6.5760292 -0.8949583 0.58063156
6.4867264 -0.88511106 0.80385019
6.6144151 -0.90371009 -0.8196932
6.589871 -0.90035669 1.0534297
6.6148829 -0.90495009 -0.58411779
6.5588436 -0.89844981 1.2868159
6.3438173 -0.87012288 -0.33557815
6.5718224 -0.90256485 1.5314668
6.6069653 -0.90739132 -0.11640755
6.5510754 -0.90088045 1.7718752
5.987563 -0.8319082 0.10551725
6.0927328 -0.84868835 0.32238949
3.6652565 -0.51120473 -0.71934991
6.5807582 -0.91900974 0.5813288
6.5230749 -0.91211493 0.80872496
6.5877909 -0.9223364 -0.81676834
6.5593005 -0.91951484 1.0490495
6.6077376 -0.92748094 -0.58376916
6.5422188 -0.91828453 1.2841445
6.3250744 -0.88893123 -0.33474078
6.5359879 -0.9197365 1.5238184
6.5780159 -0.92682147 -0.11595379
6.5306746 -0.92131371 1.7672164
6.0280259 -0.86006204 0.10628516
5.9948283 -0.85639311 0.31736524
3.6634498 -0.52399575 -0.71934991
6.5577875 -0.93915076 0.57958569
6.5629168 -0.94222333 0.81408721
6.5568576 -0.94252143 -0.813356
6.5306322 -0.93875164 1.0449822
6.5906554 -0.94855381 -0.58254898
6.5407523 -0.94253681 1.2845262
6.3257274 -0.91267824 -0.33495012
6.5113571 -0.9406211 1.5188695
6.5569282 -0.94720424 -0.11563965
6.4891797 -0.93857363 1.7568637
6.3496475 -0.92744523 0.11200954
6.0016833 -0.87876051 0.3178886
3.6344035 -0.53279368 -0.71400726
6.5288428 -0.95827464 0.57731964
6.5342242 -0.96022954 0.81091861
6.5458402 -0.96310373 -0.81238104
6.4999556 -0.95751167 1.0406021
6.5498539 -0.96603021 -0.57923707
6.5006882 -0.95877882 1.2772754
6.476781 -0.95640781 -0.34311453
6.5043465 -0.96163834 1.5179697
6.3973088 -0.94695426 -0.11288216
