-0.14923963 -5.6992314 0.70001751
-0.16799001 -6.3308292 1.0030578
-0.15579107 -5.8327118 1.1341687
-0.079279462 -2.9488861 -0.15460041
-0.15644941 -5.7817444 1.3353095
-0.15085117 -5.5391022 -0.096721236
-0.16799771 -6.1293953 1.6429833
-0.15822746 -5.4928845 0.095918426
-0.17825873 -6.1509727 0.32249416
-0.18084212 -6.1657861 0.53966836
-0.1712528 -5.7701076 0.7087921
-0.18220401 -6.1031702 0.96707786
-0.1776911 -5.8831538 1.1440907
-0.14475937 -4.7652592 -0.24985186
-0.17686855 -5.7889544 1.3371091
-0.1691576 -5.5365727 -0.096686332
-0.19146724 -6.2311443 1.6704181
-0.17676269 -5.5023229 0.09609295
-0.19480177 -5.9986013 0.3145391
-0.20079492 -6.1173257 0.53548488
-0.2064918 -6.2575751 0.76875182
-0.19659389 -5.8951977 0.93422663
-0.19693626 -5.8746836 1.1425643
-0.19692206 -5.8136551 1.3429578
-0.18916325 -5.5559339 -0.09703538
-0.20931853 -6.1165255 1.6398775
-0.19714312 -5.5076333 0.096197664
-0.21344222 -5.9340138 0.3111896
-0.21245713 -5.8497832 0.51212714
-0.22171501 -6.0464977 0.74291552
-0.21593437 -5.8609169 0.92890785
-0.21735155 -5.7895259 1.337559
-0.20930613 -5.5752226 -0.097384428
-0.22855637 -6.0597736 1.624866
-0.21689102 -5.5449145 0.096860856
-0.23124036 -5.8593915 0.30731674
-0.22740623 -5.7116399 0.50009965
-0.22693202 -5.6748135 0.69733638
-0.23018112 -5.7061732 0.90450408
-0.20774416 -5.1277404 0.99754943
-0.21944247 -5.3701436 1.24083
-0.23204581 -5.6543786 -0.09878062
-0.23578628 -5.7211516 1.5342793
-0.24000972 -5.5639775 0.097209904
-0.24811957 -5.7287601 0.30051306
-0.23855918 -5.4639035 0.47848503
-0.24674275 -5.6064289 0.68904927
-0.26412283 -5.9775836 0.94767999
-0.26466308 -5.9427702 1.1563025
-0.23907539 -5.3263902 1.2309322
-0.25731733 -5.7105546 1.5316911
-0.26142895 -5.6270723 0.098326858
-0.26129789 -5.5822187 0.29287201
-0.2574426 -5.4590571 0.4781364
-0.26054628 -5.5044534 0.67661859
-0.27755408 -5.8207476 0.92296334
-0.28145918 -5.8810686 1.1444724
-0.26264873 -5.4481964 1.259276
-0.31243343 -6.4574613 -0.11284726
-0.28071611 -5.781016 1.5508437
-0.29463906 -5.8977453 0.10307391
-0.27900773 -5.5653635 0.29203464
-0.28438398 -5.6332807 0.49347582
-0.28106893 -5.5292833 0.6797872
-0.28467877 -5.5810849 0.8851062
-0.29715284 -5.7859381 1.1261547
-0.29525001 -5.7099753 1.3200128
-0.33487804 -6.47636 -0.11319631
-0.30448948 -5.8687992 1.5746551
-0.29960939 -5.586294 0.29318603
-0.30630144 -5.674033 0.49713636
-0.29811494 -5.5045346 0.67686233
-0.2978153 -5.4636827 0.86664694
-0.31955397 -5.8437307 1.1376032
-0.31718168 -5.7634471 1.33261
-0.33576328 -6.062519 1.6269365
-0.32522451 -5.6748877 0.29789626
-0.34166138 -5.9254861 0.51927392
-0.3189037 -5.497404 0.67613112
-0.32265791 -5.5453802 0.87978743
-0.3421046 -5.8444205 1.1379848
-0.33885112 -5.7544052 1.3308104
-0.37153512 -6.2907381 1.6885355
-0.36697492 -6.0345552 0.31684188
-0.34969333 -5.7174354 0.50114552
-0.33628126 -5.4824467 0.67442495
-0.3414048 -5.534362 0.87822309
-0.35699831 -5.7707521 1.123865
-0.35708452 -5.7396351 1.3276611
-0.37527666 -5.9982625 1.6103721
-0.41008623 -6.3760577 0.33484545
-0.35344851 -5.4656621 0.47918227
-0.35959303 -5.5307001 0.68051841
-0.35905065 -5.5075111 0.87415579
-0.36851655 -5.6224761 1.0952436
-0.39054779 -5.9269065 1.3713016
-0.40105184 -6.0701667 1.6300423
-0.39963437 -5.8923585 0.30951485
-0.38919317 -5.7088915 0.50062259
-0.39065557 -5.7156416 0.70342985
-0.37732555 -5.4924291 0.87196571
-0.368948 -5.3568102 1.0437252
-0.44275346 -6.3635902 1.709241
-0.42233166 -5.9208106 0.31108492
-0.41182512 -5.7452567 0.5039345
-0.39477264 -5.4805358 0.67466869
-0.40673856 -5.6329363 0.89449227
-0.39269943 -5.412207 1.0547921
-0.43130958 -5.9015216 1.5855255
-0.44388028 -5.9172312 0.31098025
-0.469224 -6.2404794 0.54751238
-0.40298513 -5.3346244 0.65687576
-0.39554097 -5.211859 0.82785119
-0.43586161 -5.7298919 1.1169959
-0.40997558 -5.3648293 1.2421797
-0.45855604 -5.9730961 1.6051957
-0.46375078 -5.9056901 0.31045689
-0.50212009 -6.3658358 0.55866831
-0.44213289 -5.5804729 0.6873431
-0.41479744 -5.2123434 0.82816406
-0.43391534 -5.440571 1.060898
-0.43866122 -5.4759567 1.268274
-0.46935448 -5.8462914 1.5715492
-0.4822397 -5.8781579 0.30909616
-0.43762995 -5.3116438 0.46628322
-0.47094009 -5.6916605 0.7012362
-0.47551951 -5.7226977 0.90950998
-0.48841931 -5.8655365 1.1440907
-0.48115715 -5.7540347 1.3330599
-0.49008162 -5.8484677 1.5725845
-0.50565758 -5.8982405 0.31024755
-0.45616838 -5.3100838 0.46628322
-0.50547609 -5.8600683 0.72219773
-0.46149375 -5.3392898 0.84881341
-0.50244063 -5.7894716 1.1295893
-0.49007458 -5.6241887 1.3033664
-0.50882008 -5.8158401 1.5643023
-0.52928962 -5.942287 0.312655
-0.53675588 -5.9788737 0.73706579
-0.49098986 -5.447737 0.86633407
-0.52070433 -5.7661742 1.1253915
-0.5135744 -5.665141 1.3132643
-0.50478072 -5.5466064 1.4923506
-0.56383942 -6.0895597 0.3205054
-0.53331937 -5.7056969 0.90763277
-0.52267286 -5.5708092 1.0876113
-0.49826494 -5.2908039 1.2268831
-0.5230481 -5.5332709 1.4892448
-0.60687584 -6.3141975 0.33243799
-0.50746372 -5.2319246 0.83254422
-0.51890908 -5.3305606 1.0410539
-0.51521436 -5.2735164 1.2232838
-0.54782658 -5.5871677 1.5042563
-0.62930884 -6.3160155 0.33264734
-0.5354042 -5.3264294 0.8478748
-0.53436048 -5.2974633 1.034948
-0.55660677 -5.4892205 1.4783744
-0.65299167 -6.3296741 0.33348471
-0.56503263 -5.4306257 0.86476972
-0.54754865 -5.2447971 1.0250259
-0.63427307 -6.0347052 1.6259012
-0.67512552 -6.3173085 0.33296135
-0.56454759 -5.2479281 0.83598578
-0.63334516 -5.8490566 1.3582545
-0.65032362 -5.9960775 1.6160661
-0.62572657 -5.6227691 0.89605662
-0.68284771 -6.0877245 1.6414304
-3.5431581 -0.58466015 0.1882001
-4.6783205 -0.7677813 0.75088543
-5.0369529 -0.82302739 1.1782936
-7.2127512 -1.1772558 1.9582249
-4.9637808 -0.79684611 0.79625143
-4.9549197 -0.79364954 0.97541558
-4.9050926 -0.78391252 1.1468005
-7.1731394 -1.1438151 1.9463192
-5.0036103 -0.78533398 0.80219594
-4.9925729 -0.78181606 0.98228471
-7.2317354 -1.1298734 1.6898323
-7.1978892 -1.1232985 1.9520132
-5.0572226 -0.77476715 0.81033053
-5.0166189 -0.76765056 0.98648251
-7.2471939 -1.1063877 1.6925317
-7.2038678 -1.0972002 1.9525309
-3.4581528 -0.52114448 0.18328052
-5.008971 -0.75038334 0.80219594
-4.9920843 -0.74607199 0.98113985
-7.2471568 -1.0805087 1.6916319
-7.1979127 -1.0718826 1.9499427
-4.9178651 -0.71831555 0.78717823
-5.0004862 -0.72949204 0.98228471
-7.2643834 -1.0571693 1.6947812
-7.2438529 -1.0515996 1.9613307
-4.6158451 -0.66350884 0.081398024
-3.4043741 -0.4887584 0.18024503
-4.9985674 -0.71229159 0.79969299
-5.0107768 -0.71313914 0.98381118
-7.2757469 -1.0329011 1.6965809
-7.262602 -1.0297419 1.9654718
-4.6201134 -0.6476701 0.081432928
-3.3308305 -0.46515395 0.29423779
-3.3502507 -0.4666738 0.41533072
-5.0558076 -0.70245069 0.80845332
-5.0229587 -0.69699312 0.98571927
-7.2773777 -1.0072305 1.6961309
-4.7738746 -0.65988231 -0.084120599
-7.2795478 -1.0062361 1.9690953
-4.6362151 -0.63343384 0.081677262
-4.9395063 -0.6731154 0.26126109
-5.1151281 -0.69613839 0.45164106
-5.0718115 -0.68753866 0.8106434
-5.0409255 -0.68155986 0.98877221
-7.3214057 -0.98729064 1.7055789
-4.6413863 -0.62506557 -0.081747072
-7.2908454 -0.98057845 1.9711658
-4.6403802 -0.61751035 0.081712167
-4.9397314 -0.65646859 0.26115642
-4.8725789 -0.64235237 0.7784179
-5.0549526 -0.66549714 0.99106192
-7.3402647 -0.96375765 1.7091781
-4.6732807 -0.61275992 -0.082270644
-7.2980549 -0.95562431 1.9722011
-5.0753506 -0.6844104 1.1823427
-4.6267469 -0.59844625 0.081432928
-4.9619123 -0.64091771 0.26220314
-4.9355304 -0.63313159 0.78811683
-5.0670947 -0.64821094 0.99297001
-7.3553462 -0.93832739 1.7118775
-4.6596259 -0.59360573 -0.081991405
-7.309174 -0.92984438 1.9742717
-4.640712 -0.58378978 0.081642357
-5.1325625 -0.64475336 0.27110025
-5.1062864 -0.63692666 0.81502356
-5.0849125 -0.6324581 0.99602296
-7.3740481 -0.91456556 1.7154767
-4.6795304 -0.579549 -0.082305549
-7.3449684 -0.90835575 1.9830715
-4.6526461 -0.56880042 0.081816881
-4.904807 -0.59875905 0.25895831
-5.2470812 -0.6386837 0.46244837
-3.3146023 -0.40228496 0.40996847
-5.1261279 -0.62123743 0.81783938
-5.083191 -0.61423355 0.99525972
-7.3810651 -0.88928596 1.7163765
-4.6696126 -0.56177775 -0.08209612
-7.3652024 -0.88607069 1.9877303
-4.656589 -0.55279193 0.081851786
-4.8929836 -0.57998874 0.25822561
-5.2097062 -0.61568738 0.45896214
-3.2568427 -0.38374368 0.40265631
-5.1263033 -0.60310931 0.81752651
-5.0755547 -0.59534259 0.99335163
-7.4073509 -0.86623198 1.7217754
-4.6715451 -0.54547434 -0.08209612
-4.6624634 -0.53699163 0.081921596
-4.9188872 -0.5647851 0.25948167
-5.1088936 -0.58569817 0.44989794
-3.2976075 -0.37688099 0.40753108
-5.1264147 -0.58498754 0.81721365
-5.1283194 -0.58339153 1.0032737
-7.4413108 -0.84388366 1.7289738
-4.6773947 -0.52961425 -0.08216593
-7.3923243 -0.83702157 1.9934243
-4.6623221 -0.52049146 0.081886691
-4.9367087 -0.54937874 0.26031905
-4.9584312 -0.55092 0.43647596
-3.2910108 -0.36449381 0.40655613
-5.140305 -0.56749496 0.81909086
-5.1205674 -0.56441132 1.0013656
-7.4480853 -0.81832916 1.7298736
-4.6891538 -0.51437411 -0.082340454
-7.4299091 -0.81370739 2.0027418
-4.6919441 -0.50722269 0.082375358
-5.2145195 -0.56279499 0.27486844
-4.9761717 -0.53531331 0.43787045
-3.2883156 -0.35258055 0.40606865
-5.1657285 -0.55296902 0.82284529
-5.1381238 -0.54820003 1.0044186
-7.4683368 -0.7941801 1.7339227
-4.7127945 -0.50032495 -0.082724407
-7.4344877 -0.78926839 2.0032594
-4.7036303 -0.49188158 0.082549882
-5.2284662 -0.54492126 0.27549647
-4.9958452 -0.51979564 0.43943925
-3.3250674 -0.34478539 0.41045595
-5.1618258 -0.53342281 0.82190668
-5.1536763 -0.53167156 1.0070899
-4.7224692 -0.48468784 -0.082864026
-7.4527049 -0.76358956 2.0074005
-4.7152665 -0.47646505 0.082724407
-5.2441547 -0.52898318 0.27622918
-4.9678932 -0.49936471 0.43682458
-3.3756308 -0.33812285 0.41654942
-5.1833124 -0.51736336 0.82503537
-5.1789437 -0.51601442 1.0116693
-4.7380619 -0.46958094 -0.083108359
-7.4590409 -0.73925236 2.0084358
-4.7447644 -0.46272011 0.083213074
-5.2598843 -0.51202902 0.27696188
-4.967623 -0.48182814 0.43665027
-3.2878756 -0.31774478 0.40558117
-5.2008171 -0.50078172 0.82753832
-5.1787592 -0.49774556 1.0112877
-7.5169809 -0.71983077 1.7433707
-4.7695315 -0.45589324 -0.083631932
-7.484653 -0.71541675 2.0146474
-4.7563053 -0.4470907 0.083387598
-5.2796226 -0.49442315 0.27790393
-4.997047 -0.46708088 0.43909063
-3.2375747 -0.30148061 0.39924397
-5.2162174 -0.48481211 0.8297284
-5.1941493 -0.48093233 1.013959
-7.5388528 -0.69537712 1.7478697
-5.2967903 -0.48763894 -0.092846802
-7.5006911 -0.68921669 2.0182709
-4.9629677 -0.44904544 0.086982794
-5.291179 -0.47781071 0.27842729
-5.224866 -0.4699838 0.45896214
-3.1951095 -0.28628015 0.39388172
-5.2710833 -0.47043165 0.83817586
-5.1860189 -0.46192753 1.0120509
-7.5587043 -0.67060732 1.7519188
-5.3462659 -0.47337963 -0.093684518
-7.5242191 -0.66490076 2.0239649
-5.3230968 -0.46290225 0.09326566
-5.2928146 -0.45933814 0.27842729
-5.3416041 -0.46169379 0.46907221
-3.1268671 -0.26916661 0.38535086
-5.2922956 -0.45464027 0.84130455
-5.2052047 -0.44532831 1.0154855
-7.5609991 -0.64421843 1.7519188
-5.3458932 -0.45454537 -0.093649613
-5.3505862 -0.44648008 0.093719423
-5.3103087 -0.44218587 0.27926466
-5.3431831 -0.44304529 0.46907221
-3.1277876 -0.25825017 0.38535086
-4.6717393 -0.38490778 0.74243797
-5.2106408 -0.4274771 1.0162487
-7.5748554 -0.61877365 1.7546182
-5.3494404 -0.43604442 -0.093684518
-7.5594855 -0.61486183 2.0322471
-5.3461321 -0.42732234 0.093614708
-5.3237655 -0.42459946 0.27989269
-5.3446971 -0.42439141 0.46907221
-3.1346068 -0.2477999 0.38608208
-5.2874636 -0.41706097 0.84005308
-4.7032217 -0.36932563 0.91702803
-5.2183947 -0.40794741 1.2084371
-5.3688726 -0.41876825 -0.093998661
-7.5691869 -0.5903912 2.0343177
-5.3595544 -0.40957248 0.093824137
-5.3530959 -0.40813919 0.2813581
-5.346146 -0.40573235 0.46907221
-3.1413911 -0.23730516 0.3868133
-5.3125247 -0.4003832 0.8438075
-4.5889747 -0.3442413 0.89451257
-5.1576003 -0.38508624 1.1940402
-5.3942318 -0.40180735 -0.094417519
-7.5924918 -0.56421961 2.0400117
-5.3629458 -0.39100706 0.093859042
-5.3485798 -0.38808276 0.28104409
-5.3475297 -0.38706834 0.46907221
-3.1224006 -0.22491201 0.38437591
-5.2961572 -0.38056238 0.84099168
-5.2696627 -0.37680968 1.026934
-4.6010351 -0.32738491 1.0649183
-5.4215323 -0.38481606 -0.094871281
-7.5981751 -0.53931245 2.041047
-5.3902117 -0.37408431 0.094312804
-5.3598645 -0.37009828 0.28156744
-5.4204047 -0.37332805 0.47534742
-3.1310885 -0.21455426 0.38535086
-5.053137 -0.34448832 0.80219594
-5.2748634 -0.3586792 1.0276972
-4.7565302 -0.32259968 -0.24985186
-4.5982613 -0.31105926 1.0640185
-5.4427941 -0.36723521 -0.09522033
-7.6405781 -0.5141841 2.0519174
-5.4115005 -0.35563703 0.094661853
-5.3671026 -0.35177849 0.28188146
-5.3899259 -0.35138493 0.47255844
-3.1358157 -0.2033337 0.38583834
-5.0503662 -0.32659253 0.8015702
-5.3055307 -0.3412336 1.0334215
-4.7576806 -0.30516396 -0.24985186
-7.6662657 -0.49038096 1.7735141
-5.4500904 -0.34766582 -0.095325044
-5.4127089 -0.33674521 0.094661853
-5.3902839 -0.33346125 0.28303285
-5.4229374 -0.33453122 0.47534742
-3.1543387 -0.19348022 0.38803199
-5.2703894 -0.32142754 0.83629865
-5.3125684 -0.32306927 1.0345664
-4.7587169 -0.28855469 -0.24985186
-5.4632472 -0.32936135 -0.095534473
-4.597236 -0.27634708 1.2340492
-4.5935362 -0.2938305 1.0626688
-5.4258289 -0.31855248 0.094871281
-5.4073108 -0.31651827 0.28387023
-5.4519184 -0.31721983 0.47778778
-3.1510313 -0.18223911 0.38754451
-5.3681133 -0.30858344 0.85162923
-5.3136637 -0.30452297 1.0345664
-4.7596951 -0.27194191 -0.24985186
-4.5954756 -0.26175467 1.0626688
-5.5022967 -0.31244305 -0.096197664
-7.7053347 -0.43754061 2.0679642
-5.4249112 -0.29950063 0.094836377
-5.4203481 -0.29829981 0.28449826
-5.4529925 -0.29818715 0.47778778
-3.1496661 -0.17113115 0.38730077
-5.3908553 -0.29101465 0.85507079
-4.5364082 -0.24409497 0.88306403
-4.7366827 -0.25404224 -0.24859579
-4.5905234 -0.24539979 1.0613191
-5.5233225 -0.29429853 -0.096546712
-4.7157805 -0.26778143 1.2656251
-4.8864487 -0.26036406 1.3111773
-5.4418998 -0.28138843 0.095115615
-5.4253943 -0.27863611 0.2847076
-5.4540002 -0.27915084 0.47778778
-3.1502442 -0.16013573 0.38730077
-5.4075734 -0.27393585 0.85757374
-4.5450757 -0.22865303 0.8845905
-4.7614776 -0.23870662 -0.24985186
-4.5426942 -0.22694353 1.0500715
-5.5203217 -0.27481789 -0.096476903
-5.4508384 -0.2627761 0.095255234
-5.4382582 -0.26121827 0.28533563
-5.4947439 -0.26200906 0.48127401
-3.166647 -0.1498892 0.38925068
-5.4203803 -0.25467052 0.85945095
-5.3499001 -0.25042329 1.0410539
-4.7822328 -0.22301489 -0.25089857
-4.547352 -0.21126607 1.0509713
-5.5252424 -0.25573161 -0.096546712
-7.759731 -0.35779598 2.0814228
-4.8515205 -0.22370035 1.3013422
-5.4597132 -0.24410479 0.095394854
-5.4670709 -0.24347767 0.28680104
-5.4757205 -0.24194773 0.4795309
-3.1731005 -0.13909543 0.3899819
-5.448824 -0.23790079 0.86383112
-7.8280095 -0.33904062 1.5230374
-4.7630281 -0.20545968 -0.24985186
-4.9296628 -0.21178572 1.1391521
-5.5340929 -0.23678528 -0.096686332
-5.4605321 -0.22504535 0.095394854
-5.4838521 -0.2250477 0.28763842
-5.4844947 -0.22315643 0.48022814
-3.1854675 -0.12849846 0.39144433
-5.4673853 -0.21959288 0.86664694
-7.8389538 -0.31210422 1.5249455
-4.7637162 -0.18883236 -0.24985186
-4.9712637 -0.19619048 1.1486001
-5.5348857 -0.21746625 -0.096686332
-5.3782015 -0.23293645 1.0463965
-5.4652966 -0.21759819 1.0631877
-5.4772705 -0.20658611 0.095674092
-5.5025669 -0.20657848 0.28858046
-5.4693121 -0.2034182 0.47883365
-3.1839129 -0.11730524 0.39120059
-5.4839109 -0.20108588 0.86914989
-7.8674629 -0.28573685 1.5302881
-4.7643464 -0.17220274 -0.24985186
-7.8347149 -0.28180908 1.8099562
-5.573581 -0.19950369 -0.097349523
-4.7473829 -0.16993032 1.2728721
-5.4999421 -0.18821794 0.096058045
-5.5052506 -0.18743764 0.28868513
-5.5058316 -0.18553331 0.48197126
-3.1962069 -0.10658757 0.39266302
-5.5003738 -0.18246619 0.87165284
-4.7649184 -0.15557102 -0.24985186
-4.6491918 -0.15098033 1.0739163
-5.5602529 -0.17959515 -0.097105189
-4.8445166 -0.15563059 1.298754
-5.5345444 -0.17006249 0.096651427
-5.5218713 -0.16774378 0.28952251
-5.5104286 -0.16643354 0.48231988
-3.2044964 -0.095667018 0.39363798
-5.5088752 -0.1634996 0.87290431
-4.6548376 -0.1365261 0.90519787
-4.6652739 -0.13520232 1.0775156
-5.5768368 -0.16064578 -0.097384428
-4.8527303 -0.13978724 1.3008245
-5.5650886 -0.15155888 0.097174999
-5.5324059 -0.14873621 0.29004587
-5.5587763 -0.14847428 0.48650336
-3.2226704 -0.084951445 0.39583163
-5.5370834 -0.14402657 0.87728448
-3.6547984 -0.095065946 -0.31986158
-4.6637693 -0.118867 1.0770656
-5.6093485 -0.14198763 -0.097942905
-7.8756031 -0.19797718 2.1109281
-4.6336973 -0.11971907 0.90100008
-5.5775785 -0.13241694 0.097384428
-5.5468456 -0.13071866 0.29077857
-5.5592607 -0.12906963 0.48650336
-3.2269165 -0.073792474 0.3963191
-5.5296311 -0.12548488 0.876033
-3.7268158 -0.083922497 -0.32613679
-7.9570472 -0.17779172 1.5470793
-7.925558 -0.17432023 1.8302018
-5.6437751 -0.12413311 -0.098536287
-7.8916674 -0.1721968 2.1150692
-5.5739884 -0.11383863 0.097314618
-5.5592493 -0.11159627 0.2914066
-5.5995174 -0.11044924 0.48998959
-3.2271434 -0.063091228 0.3963191
-5.5201603 -0.10599249 0.87446866
-3.727086 -0.07091297 -0.32613679
-7.9674075 -0.15159096 1.5489874
-7.9377829 -0.14825551 1.8329012
-5.6641676 -0.10480183 -0.098885335
-7.9038096 -0.14486109 2.1181751
-5.5843653 -0.093575695 0.097489142
-5.5596049 -0.092190189 0.2914066
-5.6596326 -0.091872747 0.49521893
-3.2372772 -0.051420366 0.3975378
-5.5303724 -0.086878031 0.876033
-3.7273108 -0.05790258 -0.32613679
-7.9855768 -0.1226593 1.552422
-7.9577582 -0.11945358 1.8374002
-5.6405052 -0.084669392 -0.098466477
-7.9351733 -0.1177293 2.1264573
-5.596642 -0.075217997 0.097698571
-5.5838579 -0.073096704 0.29266267
-5.6081209 -0.071456394 0.49068683
-3.2552943 -0.040909388 0.39973145
-5.5247162 -0.0675005 0.8750944
-3.7075678 -0.044651552 -0.32439367
-8.0173494 -0.096555778 1.5585279
-7.9775966 -0.093291922 1.8418992
-5.6407664 -0.064979839 -0.098466477
-5.6188757 -0.054919762 0.098082524
-5.6100422 -0.053854194 0.2940234
-5.5684901 -0.051511367 0.4872006
-3.2653475 -0.029066211 0.40095014
-4.7091187 -0.041095856 0.74587953
-3.6837933 -0.031504986 -0.32230194
-8.033355 -0.067301652 1.5615808
-4.9670162 -0.040745584 -0.26031905
-8.0012691 -0.064239686 1.8472981
-5.6789519 -0.045594527 -0.099129669
-7.9686423 -0.062586857 2.1352571
-5.6390234 -0.036415731 0.098431572
-5.6361599 -0.03442977 0.29538414
-5.6124678 -0.032325852 0.49103545
-3.2733662 -0.018282116 0.40192509
-4.695406 -0.024585313 0.74368945
-3.695835 -0.018706462 -0.32334781
-5.7110712 -0.025916197 -0.099688146
-4.7309588 -0.037157627 1.2676957
-5.6451207 -0.014778925 0.098536287
-5.6322538 -0.01376222 0.29517479
-5.6603659 -0.01185506 0.49521893
-3.269442 -0.0057062586 0.40143762
-5.5883337 -0.0087781413 0.8851062
-3.7397113 -0.0052216253 -0.32718266
-4.6882479 -0.0057277782 0.91130376
-4.9671806 -0.0052016212 -0.26031905
-4.6925644 -0.004095036 1.0833643
-5.7151272 -0.0049873906 -0.099757955
-7.9978639 -0.0055835632 2.1430217
-5.6371399 0.0039354667 0.098396667
-5.6322675 0.0058980989 0.29517479
-5.7002205 0.0079590144 0.49870516
-3.2853237 0.0051605787 0.40338753
-5.6199363 0.010789516 0.89011211
-3.6958742 0.0077406322 -0.32334781
-8.0502214 0.019670441 1.8585456
-5.7251083 0.014988333 -0.099932479
-4.6823514 0.0098067082 0.91015891
-5.6770854 0.023780259 0.099094764
-5.6681673 0.024732202 0.29705889
-5.6802391 0.026767694 0.49696205
-3.3071214 0.016738989 0.40606865
-5.6099929 0.029374122 0.88854776
-3.7436449 0.020255266 -0.32753128
-4.9191675 0.028332684 -0.25780692
-8.0851804 0.04797899 1.8666438
-5.7350254 0.034032725 -0.100107
-8.067262 0.049280712 2.1616567
-5.7189678 0.042921177 0.099827765
-5.6920128 0.044705883 0.29831495
-5.6522185 0.046366457 0.49452168
-3.3249129 0.027855377 0.4082623
-5.6276339 0.049111617 0.89136358
-3.6558897 0.032542589 -0.31986158
-8.1314774 0.072381649 1.5806617
-4.8990747 0.044463813 -0.2567602
-8.1083608 0.075006463 1.8720427
-5.7528681 0.05422111 -0.10042115
-8.0670408 0.077440411 2.1616567
-4.8874935 0.02985637 1.3096244
-5.7007647 0.064675899 0.099513622
-5.7057906 0.065728896 0.29904765
-5.6599796 0.067177145 0.49521893
-3.3307363 0.040694645 0.40899352
-5.6254408 0.069713118 0.89105071
-3.7553575 0.047193698 -0.32857715
-8.1507705 0.1038538 1.5844779
-4.966769 0.064151557 -0.26031905
-5.7566298 0.075358412 -0.10049096
-8.0976097 0.10741706 2.1699389
-5.7185142 0.083843804 0.099827765
-5.7115175 0.085735354 0.29936167
-5.7274439 0.087974141 0.50114552
-3.3345527 0.051801209 0.40948099
-5.6646658 0.089976598 0.89730809
-3.7193115 0.059726226 -0.32543954
-8.1621593 0.13107129 1.5867676
-4.6607591 0.076471717 1.0761658
-5.7683282 0.095651269 -0.10070039
-8.1126381 0.13594128 2.17408
-5.7481589 0.10535231 0.10035134
-5.7151773 0.10574564 0.29957101
-5.7589745 0.10856697 0.5039345
-3.3462488 0.06425126 0.41094343
-5.6643172 0.10974942 0.89730809
-3.7748566 0.073799117 -0.33032027
-4.8620353 0.095902568 0.94526776
-5.8159422 0.11674912 -0.1015381
-5.7677702 0.12484605 0.10070039
-5.7367379 0.1261778 0.3007224
-5.7306739 0.12804579 0.50149414
-5.7493549 0.12946715 0.70611098
-5.671799 0.12970155 0.89855957
-3.774576 0.086975376 -0.33032027
-8.2807721 0.19080905 1.6100463
-8.180522 0.19135613 1.889139
-5.7995061 0.13667294 -0.10125886
-4.6584991 0.093514628 1.0757159
-3.3579249 0.075615608 0.41240586
-4.8891688 0.1126583 0.95061041
-4.7809005 0.11183328 1.1040598
-5.7872644 0.14649116 0.10104943
-5.7722015 0.14711797 0.3026065
-5.7222252 0.14784295 0.5007969
-5.7270132 0.14996712 0.70342985
-5.6930333 0.15007163 0.90200113
-3.7543325 0.099622076 -0.32857715
-8.2459987 0.22313017 1.9044356
-5.8309771 0.1577816 -0.10181734
-5.7747535 0.16533824 0.10084
-5.777642 0.16743939 0.30292051
-5.7535388 0.16875093 0.50358588
-5.740374 0.16936756 0.70513602
-5.7102453 0.17047363 0.90481695
-3.722098 0.11176971 -0.32578817
-8.2498027 0.24773072 1.604322
-5.0565967 0.15360964 1.1679459
-5.8743636 0.17947804 -0.10258525
-3.3834226 0.088598038 0.41557446
-4.8018868 0.12993524 1.1090087
-3.4763689 0.10256895 0.42703018
-5.8040886 0.187471 0.10136358
-5.7810148 0.18773575 0.30312986
-5.7967236 0.19027149 0.50742073
-5.7516187 0.19080084 0.70659845
-5.7333068 0.19119513 0.90857137
-3.7535455 0.12582962 -0.32857715
-8.2841578 0.27915624 1.6111912
-8.4078394 0.28626227 1.9422274
-5.8816955 0.20025448 -0.10272486
-8.2325961 0.28173429 2.2072088
-5.8214208 0.20735767 0.10167772
-5.8002839 0.20863205 0.30417658
-5.8119528 0.21108318 0.50881523
-5.7688083 0.2105244 0.7087921
-5.7444487 0.21164332 0.91044859
-3.8048501 0.14084747 -0.33310925
-8.3067295 0.30749747 1.6157706
-8.264685 0.30882999 1.9093845
-5.8969469 0.22138437 -0.1030041
-8.2489368 0.311125 2.2118676
-5.0618426 0.17234089 1.1692956
-5.8366469 0.22830223 0.10195696
-5.8115345 0.22833581 0.30480461
-5.8112208 0.23035515 0.50881523
-5.7720053 0.23081866 0.70927958
-5.7516104 0.23100854 0.91170006
-3.7764913 0.15233975 -0.33066889
-8.3605316 0.33871676 1.6264559
-5.8981784 0.24101978 -0.10303901
-8.267162 0.33926988 2.2170439
-5.8538388 0.24841905 0.1022711
-5.8506107 0.25032802 0.30689805
-5.8740786 0.25338636 0.51439319
-5.8029399 0.25133239 0.7131794
-5.7645835 0.25168715 0.91389014
-3.7918604 0.16621927 -0.33206338
-8.3848602 0.36755714 1.6314169
-5.8992989 0.26169542 -0.10307391
-8.2948765 0.36941485 2.2248085
-4.7785676 0.19359785 0.92962143
-5.8548865 0.26996488 0.10230601
-5.8656622 0.27148768 0.30773542
-5.8373342 0.27221855 0.51125559
-5.8059455 0.27278587 0.71366687
-3.0774431 0.14512853 -0.37828244
-5.7814284 0.27264524 0.91670597
-3.8111587 0.18039634 -0.33380649
-8.3658073 0.39744822 1.6279823
-8.364163 0.40029638 1.9332294
-5.930308 0.28381571 -0.10363239
-8.3147623 0.39938668 2.2305025
-5.8699372 0.29016875 0.10258525
-5.8766476 0.29255685 0.30836345
-5.9278834 0.2971819 0.51927392
-5.8208697 0.29283549 0.71561678
-3.1760733 0.16033719 -0.39046938
-5.8041157 0.29402382 0.92046039
-3.7866279 0.19248489 -0.33171476
-8.4056185 0.4272811 1.6359963
-8.3725206 0.4285288 1.9354789
-5.9612342 0.30615565 -0.10419087
-8.3403276 0.42980008 2.2377495
-5.9007295 0.31440787 0.10314372
-5.8795246 0.3143071 0.3085728
-5.8750271 0.31612334 0.51474182
-5.8573639 0.31722349 0.72024782
-5.8266686 0.31658103 0.92421482
-3.8256857 0.20853109 -0.33520099
-8.4254795 0.4607323 1.6401941
-8.3863798 0.46153041 1.9390781
-5.960072 0.32800261 -0.10419087
-8.3618433 0.46164393 2.2439611
-5.9475705 0.33668614 0.10398144
-5.8983319 0.33596434 0.30961952
-5.9494746 0.34096092 0.52136565
-5.854298 0.33653154 0.72000408
-3.1193542 0.17986083 -0.38364469
-5.8413047 0.33783041 0.92671777
-3.8090221 0.22096088 -0.33380649
-8.4611446 0.4908299 1.6474449
-8.4217664 0.49149528 1.9476262
-5.9708684 0.34950626 -0.1044003
-8.3756092 0.4917352 2.2481022
-5.9303902 0.35648508 0.1037022
-5.9211091 0.35696435 0.31087558
-5.89866 0.35974415 0.72561007
-3.0275635 0.18517371 -0.37243271
-5.8342372 0.35683724 0.92577916
-3.8480415 0.23603043 -0.33729272
-8.4848539 0.52192881 1.6524059
-8.4530648 0.52293527 1.9552746
-6.0036066 0.37140348 -0.10499368
-8.3893576 0.52046397 2.2522433
-5.9591107 0.37804811 0.10422577
-5.9557047 0.37991937 0.31275967
-4.185379 0.26845577 0.36692568
-5.8895106 0.37879319 0.72463512
-3.0467425 0.19649003 -0.3748701
-5.8684388 0.37949491 0.9314108
-3.8034534 0.24662491 -0.33345787
-8.4889539 0.55044384 1.6535508
-8.4785088 0.55273862 1.9615732
-6.0122507 0.3930099 -0.1051682
-8.41255 0.55138766 2.2589726
-5.9576152 0.4009266 0.10422577
-5.956265 0.40188002 0.31286435
-5.9335642 0.40450982 0.73024111
-3.085575 0.21089445 -0.37974487
-5.8965701 0.40302176 0.93610384
-3.8184258 0.26165326 -0.33485236
-8.5102814 0.58464962 1.6581302
-8.495765 0.58663201 1.9660722
-6.042689 0.41724727 -0.10572668
-8.4509446 0.58501918 2.269843
-5.9961474 0.42349825 0.10492387
-5.9687716 0.42365868 0.31359705
-5.9559506 0.42588301 0.73316597
-3.0571386 0.21913842 -0.37633253
-5.9049789 0.42431007 0.93766818
-3.8453105 0.27698448 -0.33729272
-8.5357104 0.61484224 1.6634728
-8.5054349 0.61564588 1.9687716
-6.0531625 0.43920594 -0.10593611
-8.4873863 0.61731773 2.2801958
-6.0005376 0.44591697 0.10502858
-5.9871738 0.44597461 0.31464377
-5.9662267 0.44860284 0.7346284
-3.056355 0.22980849 -0.37633253
-5.9172503 0.44595889 0.93985827
-3.8443203 0.29040544 -0.33729272
-8.5666796 0.64864291 1.6699603
-5.1520933 0.39100521 -0.27078624
-8.5225526 0.64829382 1.9732706
-6.0675439 0.46154614 -0.10621535
-8.5063686 0.64855599 2.2858898
-6.0269376 0.46798031 0.10551725
-6.0174399 0.46935604 0.31631852
-4.4076041 0.34533793 0.38679719
-6.0141812 0.47227017 0.74072187
-3.1149034 0.24514821 -0.38364469
-5.9314116 0.46785387 0.94236122
-3.8115041 0.30131062 -0.33450374
-8.5918816 0.67921354 1.675303
-5.1507684 0.40808802 -0.27078624
-8.561151 0.67979136 1.9827186
-6.0898166 0.48462661 -0.1066342
-8.5156073 0.67916633 2.2889956
-6.0850616 0.49386834 0.10656439
-6.0297852 0.49044142 0.31705122
-4.3905485 0.35865447 0.38540269
-6.0065607 0.49277377 0.73999065
-3.1140287 0.25601976 -0.38364469
-5.9593586 0.48994846 0.94705425
-3.8779964 0.31951076 -0.34043033
-8.6031545 0.71033151 1.6779743
-8.5975674 0.71289187 1.9917166
-8.5556631 0.71092078 2.3003837
-4.3125636 0.36592632 0.22682403
-4.3495658 0.37059527 0.38191646
-6.0266505 0.51454711 0.74267178
-3.1131626 0.26634485 -0.38364469
-8.697287 0.74562051 1.3825678
-3.8490664 0.33065813 -0.33798997
-8.6457408 0.74272153 1.6867515
-4.3519113 0.37462072 -0.22891747
-8.6301037 0.744413 1.9998149
-4.4029109 0.3805592 -0.077139636
-8.5627526 0.74161475 2.3029719
-5.957612 0.51074752 0.94705425
-4.2912987 0.37996864 0.22577732
-4.3362709 0.38547622 0.3808706
-6.0404482 0.53909564 0.74462169
-3.0686185 0.27440675 -0.37828244
-3.8478286 0.34476344 -0.33798997
-8.6721561 0.77854642 1.6924758
-8.6330044 0.77806943 2.0011646
-6.1381816 0.55321778 -0.10757663
-8.5907613 0.77577375 2.3112541
-6.107435 0.5601195 0.10705306
-6.077921 0.55955226 0.31987736
-4.3071239 0.39804344 0.37843024
-6.0623469 0.56131975 0.74754655
-3.0993173 0.28751497 -0.38218226
-8.7153316 0.81003109 1.3863222
-3.8624722 0.35967061 -0.33938446
-8.6910294 0.80930237 1.6966736
-8.6653018 0.80995772 2.0092628
-6.1382041 0.57482711 -0.10761154
-8.6206989 0.80882421 2.3200539
-6.1232569 0.58420994 0.1073672
-6.1037655 0.58342532 0.32134277
-4.3334742 0.41573946 0.3808706
-6.0918641 0.5865798 0.75144637
-3.066628 0.29582289 -0.37828244
-8.7419447 0.84329346 1.3910153
-3.8254964 0.36970119 -0.33624686
-8.7231789 0.84455662 1.7035427
-8.6874898 0.84416233 2.0151115
-6.1580537 0.59837733 -0.10799549
-8.642819 0.84134439 2.3267832
-6.1232759 0.6047087 0.10740211
-6.1136169 0.60590976 0.3219708
-4.2883792 0.42652536 0.37703574
-6.0977867 0.60756518 0.75242133
-3.0656301 0.30599057 -0.37828244
-8.7802249 0.87793068 1.3975855
-3.834095 0.38404529 -0.33711841
-8.7222838 0.87367475 1.7039243
-8.7098493 0.87550017 2.0209603
-8.6725051 0.87480436 2.3355831
-4.2551537 0.43822622 0.37424676
-6.123163 0.63276734 0.75583367
-3.0723862 0.3180422 -0.3792574
-8.8164044 0.91264198 1.4038429
-3.8624575 0.40050886 -0.33973309
-8.7522197 0.90908577 1.7104118
-4.2472127 0.44190373 -0.22378855
-8.7414703 0.91105361 2.0290585
-8.6982198 0.9080806 2.3433476
-4.2535249 0.45081673 0.074661395
-4.1866173 0.4452033 0.22064839
-4.2535981 0.45307681 0.37424676
-6.1169692 0.65371543 0.75534619
-3.0909955 0.33087777 -0.38169478
-8.8404978 0.94789794 1.4082231
-3.8689601 0.41483855 -0.34043033
-8.7880337 0.94382409 1.7180442
-8.7537371 0.94323166 2.0326577
-6.2507417 0.67463284 -0.10974073
-8.717881 0.94244667 2.3495593
-6.1741375 0.67617803 0.10841435
-6.1565705 0.67534156 0.3245876
-4.240108 0.46661423 0.37320089
-6.1580583 0.67985597 0.76070844
-3.0898217 0.34166535 -0.38169478
-8.8489154 0.98005598 1.4101003
-3.8833307 0.43009581 -0.34182482
-8.8276139 0.97925638 1.7264398
-5.1353089 0.57057248 -0.27078624
-8.7852534 0.97766177 2.040756
-6.2304622 0.69445424 -0.10942659
-8.7377474 0.97391904 2.3557709
-6.1856488 0.69929813 0.10865868
-6.1839443 0.70019855 0.32615768
-4.2146975 0.47871388 0.37110915
-6.187205 0.70494296 0.76460826
-3.0767764 0.35109838 -0.38023235
-8.8748794 1.014303 1.4147933
-3.8857647 0.44410102 -0.34217345
-8.8416965 1.0120739 1.7298744
-5.133286 0.58849458 -0.27078624
-8.8108275 1.0116565 2.0475045
-6.2677322 0.72076743 -0.11012468
-8.7592442 1.0072827 2.3625002
-6.1990601 0.7227384 0.10893792
-6.169434 0.72146724 0.32552965
-4.1991488 0.49180066 0.36988897
-6.1925927 0.72746245 0.76558322
-3.0991901 0.36461955 -0.38315722
-8.9067803 1.0478822 1.4204249
-3.9277223 0.46279134 -0.3460083
-8.8693055 1.0466123 1.7359802
-5.1312005 0.60640951 -0.27078624
-8.8498176 1.0474449 2.0574023
-6.2731212 0.74358305 -0.1102643
-8.7881059 1.0432516 2.3713001
-6.2242954 0.74771182 0.10942659
-6.143212 0.73905913 0.32427358
-4.175648 0.50383007 0.36797155
-6.1762207 0.74740483 0.76387704
-3.0781917 0.37304725 -0.38071983
-8.9401386 1.0850422 1.4263695
-3.9260829 0.47649883 -0.3460083
-8.8792404 1.0792237 1.7386516
-5.200427 0.63300487 -0.27455443
-8.8635172 1.0804524 2.0614515
-6.290337 0.76789896 -0.11061335
-8.828515 1.0793133 2.3832058
-6.1879096 0.76526174 0.10883321
-6.2198795 0.77031766 0.32846046
-4.2331798 0.5257699 0.37320089
-6.2011523 0.77239435 0.76728939
-3.0492932 0.38035001 -0.37730749
-13.425319 1.6745914 2.1428393
-3.8967174 0.48674318 -0.34356794
-8.9221729 1.1160598 1.7478104
-8.8828947 1.1142959 2.0668503
-6.2955546 0.79084863 -0.11075297
-8.8553616 1.113982 2.391488
-6.0126181 0.76490163 0.10579649
-6.2567776 0.79707235 0.3305539
-6.2122014 0.79580135 0.76899556
-3.0715744 0.39402266 -0.38023235
-12.5279 1.6070835 2.0004839
-3.9108038 0.50237311 -0.34496243
-12.547823 1.6140914 2.4591463
-4.6412312 0.59784908 -0.24524629
-8.9098746 1.1492851 2.0740487
-8.8667463 1.1468687 2.3956291
-8.9482524 1.1161498 1.4282467
-5.9881005 0.78303282 0.10541253
-6.242075 0.81735186 0.32992587
-6.233003 0.82059041 0.77192042
-3.0819887 0.40629876 -0.38169478
-12.496755 1.6474479 1.9964166
-3.8734718 0.51132783 -0.34182482
-12.487615 1.650678 2.448461
-4.6648559 0.61745336 -0.24660703
-12.495178 1.6561157 2.9099668
-4.6782594 0.6208892 -0.082375358
-12.313831 1.634267 3.3284129
-6.2134513 0.83567488 0.32856513
-6.1604945 0.83074192 0.54385183
-6.2517397 0.84526838 0.77460155
-3.1041574 0.42025025 -0.38461965
-3.8835093 0.52645151 -0.34287069
-12.42536 1.6865999 2.4373941
-12.44684 1.6939406 2.900069
-4.6958774 0.63991565 -0.082724407
-12.302016 1.6786049 3.32686
-4.7125816 0.6505717 0.08303855
-6.1824991 0.8556931 0.32709973
-6.171223 0.85523017 0.54507202
-2.6453628 0.36707442 -0.42299879
-6.2603969 0.86981557 0.77606398
-3.0907994 0.42998357 -0.38315722
-3.9170737 0.54562952 -0.3460083
-12.366595 1.7248075 2.4270904
-5.0697773 0.70799968 -0.26827411
-12.392299 1.7328025 2.8888214
-12.275037 1.7185903 3.321166
-6.1300387 0.87025068 0.32448293
-6.1760904 0.87788809 0.54576926
-2.7144695 0.38632621 -0.43426207
-3.0774885 0.43908753 -0.38169478
-13.577201 1.9395753 2.172249
-3.9585373 0.56549811 -0.34984315
-12.335234 1.7643507 2.4221294
-12.326375 1.7674746 2.8748745
-5.9342413 0.85196579 -0.10464463
-12.230411 1.7580716 3.3108132
-5.8952956 0.85582777 0.10398144
-6.150837 0.89402122 0.32573899
-6.2143913 0.90547398 0.5494298
-6.0263189 0.88021906 0.74779029
-3.095579 0.45269975 -0.38413217
-13.617604 1.9914485 2.1797578
-3.8973981 0.57065316 -0.34461381
-12.295978 1.8025569 2.4156419
-5.3097458 0.77934098 -0.28125343
-12.28157 1.8048243 2.8658764
-5.9353403 0.87222124 -0.10471444
-12.161442 1.7893395 3.2937312
-5.9003371 0.87654796 0.10412106
-4.976222 0.74103784 0.26366855
-6.0969005 0.91010004 0.53931974
-2.711777 0.40479393 -0.43426207
-6.0665592 0.90665335 0.75315254
-3.1176196 0.46648767 -0.38705703
-12.750996 1.9101997 2.0420955
-3.9032638 0.58543625 -0.34531105
-12.235569 1.8351682 2.4049566
-12.244684 1.8409059 2.858678
-5.9362144 0.89352942 -0.10478425
-12.122647 1.826886 3.2849313
-5.8911541 0.8972646 0.10401634
-4.9834772 0.75990894 0.26419191
-5.0281777 0.7685212 0.44501722
-2.7102751 0.41473037 -0.43426207
-6.0435734 0.92587622 0.75071516
-3.143359 0.48212451 -0.39046938
-12.804779 1.9639812 2.0517944
-3.9090737 0.60026722 -0.3460083
-12.172488 1.8713503 2.3938897
-5.8963798 0.90753965 -0.312655
-12.207039 1.881024 2.8514796
-5.9409647 0.91546341 -0.10492387
-12.068465 1.8618271 3.2719904
-5.8861704 0.91648779 0.10398144
-4.968954 0.77545211 0.26356388
-5.0294013 0.78668393 0.44536585
-2.5800763 0.40356782 -0.41361273
-6.2758129 0.98276607 0.7799638
-3.1064424 0.48701139 -0.38608208
-12.142146 1.905752 1.9466705
-3.93451 0.61823861 -0.34844866
-12.133244 1.9065246 2.3874022
-12.144908 1.9127017 2.8384324
-5.9397082 0.93650711 -0.10495877
-12.033269 1.8994244 3.2642258
-5.896595 0.94025975 0.10422577
-4.9642446 0.79247743 0.2634592
-5.0207225 0.80329072 0.44484291
-2.5844313 0.41395883 -0.41455133
-6.3701713 1.0214765 0.79215073
-3.1008034 0.49722333 -0.3855946
-3.9441308 0.6338657 -0.34949453
-12.083532 1.9441215 2.3790066
-5.8899003 0.9486817 -0.312655
-12.085871 1.9488261 2.826285
-5.9403514 0.95787153 -0.10502858
-11.990329 1.9355673 3.2543907
-5.8914709 0.95948696 0.10419087
-4.9614481 0.80980105 0.2634592
-5.0119892 0.81984651 0.44431998
-2.63568 0.43113682 -0.42299879
-6.388298 1.0461239 0.79483186
-3.1225562 0.51189781 -0.38851947
-12.058371 1.9789563 1.9354072
-3.9576224 0.65021349 -0.35088902
-12.053771 1.9803619 2.3744271
-12.044731 1.9831948 2.8181868
-5.9310524 0.97762572 -0.10492387
-11.93013 1.9686029 3.2398968
-5.8918596 0.98173117 0.10426068
-4.9585912 0.8271148 0.2634592
-5.0032015 0.83635114 0.44379704
-2.653565 0.44405448 -0.42612748
-6.4274927 1.0767467 0.80019411
-3.12849 0.52465238 -0.38949442
-12.039701 2.0190755 1.93353
-3.9553287 0.6640242 -0.35088902
-12.005774 2.0176948 2.3664132
-12.006635 2.0221492 2.8109884
-5.9414072 1.0006478 -0.1051682
-11.871751 2.0015631 3.2259206
-5.8806861 0.99992306 0.10412106
-4.9615804 0.84542493 0.26377322
-5.0120354 0.8558226 0.44484291
-2.6481834 0.4521866 -0.42550174
-6.4395404 1.1007308 0.80214402
-3.1345597 0.53636318 -0.39046938
-13.033348 2.2325136 2.0943446
-3.9608416 0.67917373 -0.35158627
-11.939031 2.0472105 2.354583
-11.969133 2.0566733 2.8037899
-5.9634979 1.0257879 -0.10562196
-11.841846 2.0390572 3.2197089
-5.8927429 1.0242096 0.1044003
-4.9625345 0.86342364 0.26398256
-5.0090174 0.87331265 0.44484291
-2.6387245 0.46053114 -0.42425027
-6.4393737 1.1250088 0.8026315
-3.1325727 0.54784831 -0.39046938
-13.09358 2.2899055 2.105295
-3.970222 0.69505697 -0.35263214
-11.902441 2.0858721 2.3488587
-11.913531 2.0921021 2.7925424
-5.999272 1.0535156 -0.10632006
-11.7947 2.0733567 3.2088385
-5.9090043 1.0472346 0.10474934
-4.9496579 0.87899474 0.2634592
-5.0177079 0.8928864 0.44588878
-2.6332931 0.46858678 -0.42362453
-6.4629683 1.15123 0.80604384
-3.1502815 0.56171789 -0.39290676
-13.136067 2.3446211 2.1134296
-4.0030755 0.71521907 -0.35576974
-11.862603 2.1194604 2.3423712
-5.4794173 0.9799801 -0.29172062
-11.858571 2.1230119 2.7812948
-6.3400172 1.1361803 -0.1124284
-10.292813 1.8464061 2.801975
-5.9190872 1.0703453 0.10499368
-4.9565425 0.89718228 0.26398256
-5.0166798 0.90987637 0.44606309
-2.697724 0.48977316 -0.43426207
-6.5018786 1.1815916 0.81140609
-3.1365833 0.57057932 -0.39144433
-13.186525 2.3987752 2.1228157
-3.9889208 0.72634824 -0.35472387
-11.833887 2.1569832 2.3381734
-5.4759632 0.99910087 -0.29172062
-11.826167 2.1598416 2.7754461
-6.6175182 1.2085734 -0.11741979
-10.273331 1.8780963 2.7983515
-5.9469707 1.0957655 0.10555215
-4.9514164 0.91411578 0.26387789
-5.0036775 0.92557031 0.44519153
-2.6339274 0.48721866 -0.42425027
-6.509636 1.2053146 0.81286852
-3.1307702 0.58025396 -0.39095685
-3.9863611 0.74026775 -0.35472387
-11.786134 2.1886865 2.3301595
-5.4726199 1.0172543 -0.29172062
-11.799781 2.195482 2.7709471
-6.6466793 1.2378897 -0.11801317
-10.238226 1.9086348 2.7905869
-6.0392118 1.1356634 0.10726249
-4.9678233 0.93508842 0.26492461
-4.9965004 0.94229229 0.44484291
-2.5971843 0.4902736 -0.41861863
-6.540285 1.2357997 0.81725582
-3.1442265 0.59467616 -0.39290676
-3.9994137 0.75714306 -0.35611836
-14.088888 2.6697641 2.7873378
-5.4688547 1.0373056 -0.29172062
-11.77251 2.2350808 2.7664481
-6.6833528 1.2700827 -0.11874617
-10.220113 1.9421973 2.7874811
-6.5733324 1.2598763 0.11682641
-4.9545556 0.95140689 0.26440125
-5.0029636 0.96160793 0.44571447
-2.6381328 0.5075468 -0.42550174
-6.5573735 1.2627511 0.81993694
-3.1518776 0.60752649 -0.39412546
-10.594138 2.0439449 1.7088901
-4.0045717 0.77260875 -0.35681561
-14.141168 2.7308393 2.7995496
-6.627835 1.2835193 -0.11783865
-10.20534 1.9781723 2.7854106
-11.731739 2.2230977 2.3210006
-11.702703 2.2599408 2.3168028
-11.716805 2.2669067 2.7552005
-6.7769325 1.3234407 0.12052632
-4.9415725 0.96591582 0.26387789
-4.9839345 0.97600251 0.44431998
-2.5936983 0.50839328 -0.41861863
-6.5685094 1.2886903 0.82188685
-3.1497378 0.6185249 -0.39412546
-10.559803 2.0755791 1.7045099
-4.0135803 0.78888817 -0.35786148
-10.558209 2.0771799 2.0916482
-5.4614798 1.0754599 -0.29172062
-6.7135608 1.3244508 -0.11944427
-10.198724 2.0120036 2.7854106
-4.5756471 0.9101528 0.081432928
-4.946006 0.98471919 0.26429658
-4.9863589 0.9945629 0.44484291
-2.6422738 0.52749884 -0.42675322
-6.5912235 1.3170564 0.82529919
-3.1572922 0.63146232 -0.39534415
-10.511817 2.1042845 1.6979397
-3.995173 0.79976471 -0.35646699
-10.523944 2.1086225 2.0863056
-5.4576924 1.0945174 -0.29172062
-10.518014 2.1112534 2.4767111
-6.6187129 1.3297587 -0.11783865
-10.165123 2.0422642 2.7781636
-4.6180487 0.90184072 0.082131025
-6.2932327 1.2746545 0.11207935
-4.9384489 1.0020463 0.26408724
-4.9789518 1.0111694 0.44449429
-2.6326732 0.53514493 -0.42550174
-6.6216003 1.3471798 0.82968649
-3.1589591 0.64327169 -0.39583163
-10.466068 2.131248 1.6916823
-4.0118795 0.8176846 -0.3582101
-10.470352 2.135927 2.0771467
-5.4538386 1.1135617 -0.29172062
-10.480031 2.1417123 2.4695127
-6.4024445 1.3095757 -0.11406893
-10.142428 2.0764078 2.7740225
-4.4967171 0.92713366 0.08014145
-4.9468351 1.0208392 0.26471527
-4.9695384 1.027333 0.44397135
-2.6153139 0.54112946 -0.42299879
-6.6343521 1.3739083 0.83188014
-3.1761322 0.6583235 -0.39826901
-10.438845 2.1655812 1.6885536
-10.424387 2.1644798 2.0695144
-10.443873 2.1723287 2.4627641
-6.7756745 1.4105761 -0.12080556
-10.125662 2.1098285 2.7714343
-4.5332443 0.91817995 0.080734832
-4.4973675 0.94364576 0.08021126
-4.9393323 1.0372797 0.26450592
-4.9698215 1.045494 0.44431998
-2.6288731 0.55351126 -0.42550174
-10.411428 2.1940321 1.3064394
-3.1718725 0.66899659 -0.39802528
-10.406479 2.1948861 1.6844863
-10.391797 2.1955786 2.0645533
-5.4459316 1.1516092 -0.29172062
-10.405722 2.2023154 2.4555657
-6.7941848 1.4391918 -0.12122442
-10.116346 2.1447602 2.7709167
-6.6550214 1.4206396 0.11878108
-4.9161496 1.0503418 0.2634592
-4.9797797 1.0657542 0.44554016
-2.6191987 0.56102941 -0.42425027
-3.1831044 0.68297957 -0.39973145
-10.36592 2.2241531 1.6791675
-4.0615363 0.87220095 -0.36343945
-10.35144 2.2248262 2.0580658
-5.5395083 1.1916133 -0.29695422
-10.350344 2.2283708 2.4443182
-6.8223518 1.4700599 -0.1218178
-10.099356 2.1780234 2.7683285
-6.6469977 1.4007421 0.83407379
-4.5546709 0.97228023 0.081293309
-6.6711826 1.4301776 0.83772987
-6.3256306 1.373429 0.11298688
-4.9124533 1.067496 0.2634592
-4.9662952 1.0810116 0.4446686
-2.6326652 0.57353253 -0.42675322
-10.322156 2.2505939 1.2971773
-3.1574276 0.68900783 -0.39680658
-10.311774 2.2502157 1.6716587
-10.314841 2.2546573 2.0523416
-10.313948 2.2582347 2.4375696
-6.1745278 1.3530397 -0.11033411
-10.078868 2.2086075 2.764705
-6.8148238 1.5045719 0.1218178
-4.9086971 1.0846372 0.2634592
-4.9624915 1.0983406 0.4446686
-2.6383617 0.58442761 -0.4280047
-10.29098 2.2814554 1.2942524
-3.1588792 0.7008851 -0.39729406
-10.278786 2.2806343 1.6675914
-10.270495 2.2825565 2.0450908
-10.27747 2.2878716 2.4308211
-6.1736709 1.3754543 -0.11040392
-10.076362 2.2467949 2.766258
-4.5981492 0.99835605 0.082131025
-6.249304 1.4037578 0.11180012
-4.9044962 1.1034772 0.2634592
-4.9526014 1.1152087 0.44414567
-2.6246396 0.59148809 -0.42612748
-10.255439 2.3130438 1.2908401
-3.1911438 0.7203259 -0.40168136
-10.243382 2.3122033 1.6632112
-10.223761 2.3115254 2.0374585
-5.6239086 1.2725606 -0.30218781
-10.244307 2.3199297 2.4249724
-6.1958914 1.4042608 -0.11089259
-10.042081 2.2759761 2.759011
-6.2521641 1.4273437 0.11193973
-4.8947735 1.1192547 0.26314519
-4.9525627 1.1333786 0.44449429
-2.622559 0.60064619 -0.42612748
-10.202799 2.3386272 1.2852341
-3.1615222 0.72524681 -0.39826901
-10.211735 2.3444275 1.6594568
-4.145894 0.9518214 -0.37215502
-10.19267 2.3419233 2.032879
-5.5493597 1.2760708 -0.29841962
-10.201963 2.3478081 2.4168741
-6.2123874 1.4308169 -0.11127654
-10.035554 2.3132008 2.7595287
-6.2588314 1.4518703 0.11214916
-4.8735253 1.1314152 0.26220314
-4.9602201 1.1533668 0.44554016
-2.6089025 0.60711064 -0.42425027
-10.159773 2.3661226 1.2808468
-3.1396386 0.73177218 -0.39583163
-10.180818 2.3728972 1.6557024
-4.1425462 0.96628747 -0.37215502
-10.159579 2.371686 2.027918
-6.1594557 1.4390176 -0.33149595
-10.155754 2.3745318 2.4078761
-6.1784007 1.4445809 -0.11075297
-10.027828 2.3464671 2.7595287
-6.2500895 1.4717007 0.11207935
-4.8734341 1.149337 0.26241248
-4.9445296 1.1679261 0.44449429
-2.6260997 0.62029972 -0.42737896
-10.124825 2.3934073 1.2774345
-3.1835572 0.75314775 -0.40168136
-10.124418 2.3970428 1.6478807
-4.139148 0.98074177 -0.37215502
-10.124913 2.3990263 2.0225754
-6.123556 1.452062 -0.3298212
-10.13076 2.4041468 2.403827
-6.1888852 1.4698353 -0.11103221
-10.00642 2.3783295 2.7559052
-6.2641012 1.4992532 0.1124284
-4.8693925 1.1663415 0.26241248
-4.9365479 1.1842491 0.44414567
-2.6046006 0.62530927 -0.42425027
-10.090893 2.4244718 1.2742659
-3.1498941 0.75738566 -0.39778154
-10.085258 2.42498 1.6428748
-10.087422 2.4292252 2.0168511
-10.099147 2.4357788 2.3984281
-6.216764 1.4994001 -0.11162559
-9.9830337 2.4096177 2.7517641
-6.9586524 1.6899045 0.12499413
-4.8652915 1.1833317 0.26241248
-4.9304482 1.2010021 0.44397135
-2.6140282 0.63674805 -0.42612748
-10.061583 2.4527495 1.2715847
-3.1589364 0.77064981 -0.39924397
-10.053704 2.4545472 1.6391203
-10.033539 2.4514796 2.0076922
-4.5379046 1.1095788 -0.2448276
-10.062621 2.4623076 2.3916796
-9.9670564 2.442611 2.7496935
-4.8727654 1.2031803 0.26304052
-4.9416989 1.2220316 0.44536585
-2.6212645 0.64869737 -0.42769183
-10.013988 2.4800663 1.26671
-3.1677883 0.78453513 -0.4007064
-10.020149 2.4834484 1.635053
-10.007338 2.4839813 2.0042577
-4.531869 1.1257221 -0.24472293
-10.010031 2.4883596 2.3813319
-4.5643692 1.134641 -0.08209612
-9.9472211 2.4745894 2.7465877
-4.5761604 1.1452076 0.082340454
-6.9490809 1.7441992 0.6268241
-2.6267627 0.65930982 -0.4289433
-10.051915 2.5248666 1.2725597
-3.1650305 0.79558799 -0.4007064
-10.009504 2.5179283 1.6347402
-9.9761991 2.5114018 1.9996783
-9.9677112 2.5129653 2.3732336
-6.1464315 1.5507213 -0.11064826
-9.9347764 2.5083507 2.7455524
-4.9683223 1.2470345 0.44815483
-7.0432974 1.7887697 0.12684409
-6.9741519 1.7750967 0.62961309
-2.607217 0.66408668 -0.42612748
-10.094978 2.5731775 1.2791406
-3.1930101 0.81448159 -0.40460622
-10.035552 2.5598956 1.6403718
-9.980687 2.5496114 2.0023496
-5.5864333 1.4281182 -0.30218781
-9.9494389 2.5453289 2.3709841
-6.1741895 1.5795205 -0.11124164
-9.9095604 2.5369697 2.7408937
-7.0586286 1.8176015 0.12722804
-7.0107148 1.8078733 0.37943568
-6.9891333 1.8049102 0.63153051
-2.643253 0.68260742 -0.43238486
-10.142126 2.6210436 1.2862091
-3.1633856 0.81810713 -0.40119388
-10.064803 2.6048092 1.6466292
-10.038697 2.5999223 2.0157062
-5.5816668 1.4466356 -0.30218781
-9.9862155 2.5900502 2.3817818
-6.2228341 1.6151293 -0.11221897
-9.9268216 2.5783443 2.7481406
-7.0673968 1.8475064 0.12750728
-7.0449385 1.8429492 0.38163379
-7.0155554 1.8378793 0.63449381
-2.6025173 0.68227216 -0.42612748
-10.167013 2.6672659 1.2905963
-3.1795661 0.8347367 -0.40363127
-10.116789 2.6559773 1.656641
-10.048087 2.6416904 2.0195224
-10.025653 2.6395341 2.3934792
-6.2287611 1.6398959 -0.1124284
-9.9551231 2.6228232 2.7584934
-10.016781 2.6540303 0.18087674
-7.0476088 1.8725897 0.63798004
-2.6097861 0.693435 -0.42769183
-10.179215 2.7065774 1.2932775
-3.1998007 0.85140112 -0.40655613
-10.160905 2.7055068 1.6654013
-10.096184 2.6901609 2.0309709
-5.6679231 1.511296 -0.30742141
-10.062034 2.6848235 2.4042769
-6.2384549 1.6657554 -0.11270764
-10.001898 2.672518 2.7740225
-7.0712803 1.876237 0.38341322
-9.964502 2.6793024 0.18010883
-10.30484 2.7727427 0.55926203
-2.6262996 0.70813831 -0.43082052
-10.22289 2.7583474 1.3001022
-3.1736611 0.85691374 -0.40363127
-10.181912 2.7491973 1.6704072
-10.12795 2.7384206 2.0393665
-5.6392106 1.5258001 -0.30616534
-10.084103 2.7303427 2.4119252
-8.8287158 2.3904377 -0.15965461
-10.035395 2.7190347 2.7859282
-9.9343392 2.7065491 0.17972488
-10.339415 2.820787 0.56166948
-10.322833 2.8201349 0.93622699
-2.6410868 0.72152879 -0.43363634
-10.263472 2.805843 1.3064394
-3.1746315 0.86848089 -0.40411874
-10.21798 2.79724 1.6779161
-10.162364 2.7839214 2.0481438
-5.6013746 1.5355155 -0.30438592
-10.121976 2.7766561 2.4231728
-8.8473148 2.428652 -0.16014328
-10.064962 2.7647942 2.7967986
-7.0564195 1.9013259 0.63937453
-9.9397719 2.7472038 0.18000412
-10.387256 2.8728331 0.56480964
-10.360929 2.8694455 0.94058478
-2.6231956 0.72698349 -0.43113339
-10.30668 2.8582954 1.313264
-3.2058575 0.88966555 -0.40850604
-10.25003 2.8445114 1.6847992
-4.0986473 1.1381964 -0.37215502
-10.191815 2.8321882 2.0561577
-5.6207242 1.5629914 -0.30574666
-10.162421 2.8278416 2.4353201
-8.9158434 2.4809632 -0.16153947
-10.094332 2.8107931 2.807669
-9.8882428 2.7682899 0.17923621
-10.438704 2.9263256 0.56815914
-10.396887 2.9185177 0.94476825
-2.6093592 0.73247508 -0.42925617
-10.343012 2.9053419 1.3191138
-3.2028896 0.90029166 -0.40850604
-10.281873 2.8920405 1.6916823
-10.216384 2.8755445 2.0630269
-5.6654943 1.5956999 -0.30846813
-10.209258 2.877385 2.4488172
